# .PCD v0.7 - Point Cloud Data file format
VERSION 0.7
FIELDS x y z
SIZE 4 4 4
TYPE F F F
COUNT 1 1 1
WIDTH 1686
HEIGHT 1
VIEWPOINT 0 0 0 1 0 0 0
POINTS 1686
DATA ascii
0.032761 0.014577 0.238280 
0.033128 0.014626 0.238283 
0.033520 0.014616 0.238283 
0.033940 0.014545 0.238278 
0.034290 0.014632 0.238283 
0.034598 0.014811 0.238294 
0.034818 0.015190 0.238315 
0.034730 0.016262 0.238376 
0.034927 0.016694 0.238401 
0.035176 0.017007 0.238419 
0.035402 0.017372 0.238440 
0.035595 0.017812 0.238465 
-0.027986 0.017613 0.238861 
-0.027411 0.017195 0.238837 
-0.026788 0.016665 0.238807 
-0.026189 0.016191 0.238779 
-0.025658 0.015868 0.238761 
-0.025062 0.015401 0.238734 
-0.024579 0.015188 0.238722 
-0.024077 0.014933 0.238707 
-0.023590 0.014710 0.238695 
-0.023120 0.014526 0.238684 
-0.022684 0.014417 0.238678 
-0.022246 0.014307 0.238672 
-0.021813 0.014204 0.238666 
-0.021373 0.014089 0.238659 
-0.020952 0.014016 0.238655 
-0.020547 0.013978 0.238653 
-0.020224 0.014123 0.238661 
-0.019866 0.014192 0.238665 
-0.019424 0.014071 0.238658 
-0.019084 0.014180 0.238664 
-0.018613 0.013994 0.238654 
-0.018712 0.023828 0.239217 
-0.018463 0.024142 0.239235 
-0.018173 0.024363 0.239248 
-0.017819 0.024441 0.239252 
-0.017417 0.024410 0.239250 
-0.002618 0.010324 0.238443 
-0.002151 0.010145 0.238433 
-0.001786 0.010197 0.238436 
-0.001409 0.010224 0.238438 
-0.001025 0.010232 0.238438 
-0.000662 0.010290 0.238441 
-0.000290 0.010326 0.238443 
0.000097 0.010330 0.238444 
0.000539 0.010208 0.238437 
0.000961 0.010131 0.238432 
0.001429 0.009953 0.238422 
0.001957 0.009638 0.238404 
0.002440 0.009424 0.238392 
0.002968 0.009109 0.238374 
0.003386 0.009044 0.238370 
0.003863 0.008843 0.238359 
0.004272 0.008796 0.238356 
0.004651 0.008818 0.238357 
0.005023 0.008853 0.238359 
0.005371 0.008943 0.238364 
0.005691 0.009097 0.238373 
0.006009 0.009256 0.238382 
0.006351 0.009360 0.238388 
0.006719 0.009405 0.238391 
0.007013 0.009617 0.238403 
0.007322 0.009797 0.238413 
0.007686 0.009851 0.238416 
0.008063 0.009876 0.238418 
0.008451 0.009877 0.238418 
0.008817 0.009926 0.238421 
0.009187 0.009968 0.238423 
0.009524 0.010084 0.238430 
0.009885 0.010143 0.238433 
0.010162 0.010395 0.238447 
0.010363 0.010815 0.238472 
0.010603 0.011149 0.238491 
0.023940 0.011715 0.238523 
0.024299 0.011780 0.238527 
0.024652 0.011859 0.238531 
0.025033 0.011875 0.238532 
0.025419 0.011880 0.238532 
0.025795 0.011908 0.238534 
0.026138 0.012011 0.238540 
0.026523 0.012017 0.238540 
0.026887 0.012071 0.238543 
0.027259 0.012108 0.238546 
0.027602 0.012210 0.238551 
0.028003 0.012181 0.238550 
0.028425 0.012106 0.238545 
0.028771 0.012201 0.238551 
0.029042 0.012465 0.238566 
0.029259 0.012851 0.238588 
0.029519 0.013140 0.238605 
0.029794 0.013394 0.238619 
0.030128 0.013514 0.238626 
0.030457 0.013648 0.238634 
0.030762 0.013836 0.238645 
0.031108 0.013931 0.238650 
0.031415 0.014113 0.238660 
0.031744 0.014247 0.238668 
0.032055 0.014422 0.238678 
0.032381 0.014561 0.238686 
0.032731 0.014647 0.238691 
0.033097 0.014698 0.238694 
0.033488 0.014691 0.238694 
0.033913 0.014608 0.238689 
0.034275 0.014667 0.238692 
0.034587 0.014839 0.238702 
0.034822 0.015184 0.238722 
0.034785 0.016142 0.238777 
0.034943 0.016659 0.238806 
0.035191 0.016975 0.238824 
0.035417 0.017339 0.238845 
0.035605 0.017791 0.238871 
-0.027955 0.017546 0.239265 
-0.027372 0.017108 0.239239 
-0.026770 0.016628 0.239212 
-0.026187 0.016187 0.239186 
-0.025656 0.015867 0.239168 
-0.025082 0.015447 0.239144 
-0.024592 0.015218 0.239131 
-0.024067 0.014912 0.239113 
-0.023581 0.014691 0.239100 
-0.023091 0.014461 0.239087 
-0.022648 0.014340 0.239080 
-0.022194 0.014190 0.239071 
-0.021752 0.014070 0.239065 
-0.021302 0.013930 0.239056 
-0.020860 0.013809 0.239049 
-0.020419 0.013690 0.239043 
-0.020055 0.013745 0.239046 
-0.019655 0.013720 0.239044 
-0.019334 0.013870 0.239053 
-0.018996 0.013983 0.239059 
-0.018488 0.013714 0.239044 
-0.018206 0.013952 0.239058 
-0.018354 0.023900 0.239631 
-0.018114 0.024234 0.239650 
-0.017781 0.024356 0.239657 
-0.017393 0.024357 0.239657 
-0.002941 0.010178 0.238840 
-0.002551 0.010175 0.238840 
-0.002155 0.010157 0.238839 
-0.001780 0.010187 0.238841 
-0.001424 0.010259 0.238845 
-0.001036 0.010259 0.238845 
-0.000676 0.010322 0.238849 
-0.000290 0.010329 0.238849 
0.000106 0.010312 0.238848 
0.000565 0.010152 0.238839 
0.001007 0.010029 0.238832 
0.001515 0.009761 0.238816 
0.002025 0.009486 0.238800 
0.002529 0.009227 0.238786 
0.003040 0.008950 0.238770 
0.003464 0.008868 0.238765 
0.003922 0.008712 0.238756 
0.004329 0.008670 0.238753 
0.004698 0.008712 0.238756 
0.005073 0.008743 0.238758 
0.005430 0.008813 0.238762 
0.005756 0.008952 0.238770 
0.006085 0.009086 0.238777 
0.006417 0.009212 0.238785 
0.006748 0.009342 0.238792 
0.007054 0.009528 0.238803 
0.007359 0.009715 0.238814 
0.007714 0.009788 0.238818 
0.008073 0.009855 0.238822 
0.008458 0.009863 0.238822 
0.008818 0.009925 0.238826 
0.009185 0.009974 0.238829 
0.009525 0.010083 0.238835 
0.009896 0.010122 0.238837 
0.010195 0.010321 0.238849 
0.010437 0.010650 0.238868 
0.010669 0.011002 0.238888 
0.010998 0.011136 0.238895 
0.023251 0.011520 0.238918 
0.023581 0.011650 0.238925 
0.023953 0.011686 0.238927 
0.024313 0.011749 0.238931 
0.024663 0.011837 0.238936 
0.025043 0.011854 0.238937 
0.025416 0.011890 0.238939 
0.025798 0.011903 0.238940 
0.026146 0.011995 0.238945 
0.026521 0.012024 0.238947 
0.026880 0.012090 0.238950 
0.027243 0.012146 0.238954 
0.027586 0.012248 0.238960 
0.027981 0.012232 0.238959 
0.028392 0.012182 0.238956 
0.028726 0.012302 0.238963 
0.028999 0.012562 0.238978 
0.029224 0.012930 0.238999 
0.029487 0.013212 0.239015 
0.029769 0.013451 0.239029 
0.030076 0.013634 0.239039 
0.030412 0.013751 0.239046 
0.030707 0.013962 0.239058 
0.031018 0.014136 0.239068 
0.031346 0.014270 0.239076 
0.031674 0.014406 0.239084 
0.032012 0.014519 0.239090 
0.032346 0.014642 0.239097 
0.032702 0.014715 0.239102 
0.033068 0.014764 0.239104 
0.033458 0.014761 0.239104 
0.033881 0.014682 0.239100 
0.034251 0.014723 0.239102 
0.034562 0.014897 0.239112 
0.034815 0.015200 0.239130 
0.034838 0.016024 0.239177 
0.034953 0.016639 0.239212 
0.035199 0.016959 0.239231 
0.035428 0.017316 0.239251 
0.035618 0.017764 0.239277 
-0.027934 0.017501 0.239670 
-0.027341 0.017039 0.239643 
-0.026736 0.016552 0.239615 
-0.026190 0.016198 0.239594 
-0.025658 0.015872 0.239575 
-0.025131 0.015560 0.239557 
-0.024589 0.015215 0.239537 
-0.024067 0.014914 0.239520 
-0.023582 0.014695 0.239507 
-0.023072 0.014421 0.239491 
-0.022618 0.014274 0.239483 
-0.022154 0.014103 0.239473 
-0.021709 0.013975 0.239465 
-0.021231 0.013772 0.239454 
-0.020775 0.013620 0.239445 
-0.020341 0.013518 0.239439 
-0.019943 0.013495 0.239438 
-0.019524 0.013426 0.239434 
-0.019170 0.013503 0.239438 
-0.018842 0.013639 0.239446 
-0.018367 0.013443 0.239435 
-0.017881 0.013224 0.239422 
-0.017546 0.013343 0.239429 
-0.017057 0.013116 0.239416 
-0.016644 0.013060 0.239413 
-0.017650 0.024065 0.240050 
-0.017284 0.024114 0.240053 
-0.016877 0.024073 0.240050 
-0.003280 0.010069 0.239239 
-0.002948 0.010196 0.239247 
-0.002520 0.010107 0.239242 
-0.002164 0.010180 0.239246 
-0.001784 0.010198 0.239247 
-0.001445 0.010308 0.239253 
-0.001056 0.010306 0.239253 
-0.000696 0.010370 0.239257 
-0.000288 0.010327 0.239254 
0.000122 0.010276 0.239251 
0.000599 0.010076 0.239240 
0.001064 0.009903 0.239230 
0.001597 0.009578 0.239211 
0.002101 0.009318 0.239196 
0.002609 0.009048 0.239180 
0.003100 0.008816 0.239167 
0.003532 0.008717 0.239161 
0.003974 0.008596 0.239154 
0.004380 0.008557 0.239152 
0.004742 0.008615 0.239155 
0.005123 0.008631 0.239156 
0.005482 0.008699 0.239160 
0.005818 0.008816 0.239167 
0.006136 0.008973 0.239176 
0.006472 0.009091 0.239183 
0.006772 0.009291 0.239194 
0.007091 0.009446 0.239203 
0.007398 0.009629 0.239214 
0.007745 0.009722 0.239219 
0.008092 0.009814 0.239225 
0.008463 0.009854 0.239227 
0.008817 0.009929 0.239231 
0.009179 0.009989 0.239235 
0.009525 0.010083 0.239240 
0.009898 0.010117 0.239242 
0.010211 0.010287 0.239252 
0.010492 0.010530 0.239266 
0.010761 0.010797 0.239282 
0.011132 0.010836 0.239284 
0.011436 0.011026 0.239295 
0.022487 0.011492 0.239322 
0.022798 0.011666 0.239332 
0.023229 0.011571 0.239326 
0.023566 0.011687 0.239333 
0.023956 0.011683 0.239333 
0.024320 0.011736 0.239336 
0.024674 0.011814 0.239340 
0.025052 0.011836 0.239342 
0.025414 0.011895 0.239345 
0.025803 0.011894 0.239345 
0.026151 0.011984 0.239350 
0.026514 0.012042 0.239354 
0.026869 0.012116 0.239358 
0.027224 0.012190 0.239362 
0.027566 0.012295 0.239368 
0.027949 0.012308 0.239369 
0.028350 0.012278 0.239367 
0.028680 0.012409 0.239375 
0.028965 0.012641 0.239388 
0.029198 0.012990 0.239408 
0.029458 0.013281 0.239425 
0.029732 0.013538 0.239440 
0.030019 0.013765 0.239453 
0.030342 0.013911 0.239462 
0.030642 0.014109 0.239473 
0.030906 0.014390 0.239490 
0.031234 0.014526 0.239497 
0.031603 0.014569 0.239500 
0.031966 0.014626 0.239503 
0.032315 0.014713 0.239508 
0.032683 0.014759 0.239511 
0.033043 0.014823 0.239515 
0.033431 0.014823 0.239515 
0.033850 0.014754 0.239511 
0.034225 0.014784 0.239512 
0.034540 0.014949 0.239522 
0.034799 0.015238 0.239539 
0.034875 0.015943 0.239579 
0.034961 0.016623 0.239619 
0.035201 0.016955 0.239638 
0.035431 0.017313 0.239659 
-0.027924 0.017479 0.240076 
-0.027318 0.016991 0.240048 
-0.026725 0.016530 0.240021 
-0.026201 0.016224 0.240003 
-0.025667 0.015896 0.239984 
-0.025156 0.015618 0.239968 
-0.024618 0.015281 0.239948 
-0.024085 0.014956 0.239929 
-0.023588 0.014710 0.239915 
-0.023065 0.014408 0.239897 
-0.022596 0.014226 0.239887 
-0.022128 0.014046 0.239876 
-0.021680 0.013912 0.239868 
-0.021177 0.013654 0.239853 
-0.020724 0.013509 0.239845 
-0.020285 0.013393 0.239838 
-0.019841 0.013269 0.239831 
-0.019403 0.013155 0.239824 
-0.019006 0.013136 0.239823 
-0.018635 0.013175 0.239825 
-0.018236 0.013151 0.239824 
-0.017831 0.013114 0.239822 
-0.017472 0.013178 0.239826 
-0.016999 0.012989 0.239815 
-0.016534 0.012815 0.239805 
-0.016132 0.012784 0.239803 
-0.016822 0.023951 0.240453 
-0.003297 0.010109 0.239647 
-0.002947 0.010196 0.239652 
-0.002517 0.010102 0.239647 
-0.002180 0.010217 0.239653 
-0.001805 0.010247 0.239655 
-0.001475 0.010378 0.239663 
-0.001101 0.010409 0.239664 
-0.000724 0.010436 0.239666 
-0.000288 0.010328 0.239660 
0.000136 0.010246 0.239655 
0.000641 0.009984 0.239640 
0.001119 0.009783 0.239628 
0.001671 0.009413 0.239606 
0.002175 0.009153 0.239591 
0.002660 0.008935 0.239579 
0.003137 0.008734 0.239567 
0.003578 0.008616 0.239560 
0.004004 0.008531 0.239555 
0.004410 0.008492 0.239553 
0.004781 0.008529 0.239555 
0.005163 0.008544 0.239556 
0.005531 0.008590 0.239559 
0.005861 0.008721 0.239566 
0.006183 0.008869 0.239575 
0.006510 0.009008 0.239583 
0.006805 0.009217 0.239595 
0.007120 0.009381 0.239605 
0.007438 0.009540 0.239614 
0.007773 0.009659 0.239621 
0.008109 0.009779 0.239628 
0.008463 0.009854 0.239632 
0.008815 0.009936 0.239637 
0.009171 0.010010 0.239641 
0.009523 0.010090 0.239646 
0.009892 0.010134 0.239648 
0.010216 0.010279 0.239657 
0.010532 0.010441 0.239666 
0.010837 0.010628 0.239677 
0.011192 0.010703 0.239682 
0.011521 0.010835 0.239689 
0.021555 0.011845 0.239748 
0.022003 0.011709 0.239740 
0.022455 0.011567 0.239732 
0.022796 0.011674 0.239738 
0.023221 0.011592 0.239733 
0.023561 0.011700 0.239740 
0.023948 0.011702 0.239740 
0.024311 0.011759 0.239743 
0.024686 0.011789 0.239745 
0.025059 0.011824 0.239747 
0.025412 0.011903 0.239751 
0.025808 0.011884 0.239750 
0.026153 0.011981 0.239756 
0.026501 0.012072 0.239761 
0.026854 0.012152 0.239766 
0.027193 0.012263 0.239772 
0.027535 0.012368 0.239778 
0.027902 0.012414 0.239781 
0.028310 0.012371 0.239779 
0.028653 0.012471 0.239784 
0.028935 0.012710 0.239798 
0.029172 0.013051 0.239818 
0.029426 0.013355 0.239836 
0.029691 0.013632 0.239852 
0.029948 0.013926 0.239869 
0.030243 0.014137 0.239881 
0.030494 0.014446 0.239899 
0.030735 0.014776 0.239919 
0.031107 0.014813 0.239921 
0.031521 0.014756 0.239917 
0.031918 0.014735 0.239916 
0.032291 0.014769 0.239918 
0.032658 0.014818 0.239921 
0.033018 0.014880 0.239925 
0.033408 0.014876 0.239924 
0.033825 0.014811 0.239921 
0.034200 0.014843 0.239923 
0.034517 0.015003 0.239932 
0.034792 0.015256 0.239947 
0.034899 0.015891 0.239984 
0.034974 0.016595 0.240025 
0.035202 0.016956 0.240046 
0.035421 0.017337 0.240068 
-0.027909 0.017449 0.240482 
-0.027301 0.016954 0.240453 
-0.026725 0.016532 0.240428 
-0.026217 0.016262 0.240412 
-0.025689 0.015948 0.240394 
-0.025190 0.015697 0.240379 
-0.024664 0.015387 0.240361 
-0.024129 0.015057 0.240342 
-0.023599 0.014737 0.240323 
-0.023070 0.014421 0.240305 
-0.022585 0.014204 0.240292 
-0.022115 0.014020 0.240281 
-0.021654 0.013855 0.240271 
-0.021141 0.013574 0.240255 
-0.020706 0.013468 0.240249 
-0.020246 0.013307 0.240239 
-0.019755 0.013077 0.240226 
-0.019320 0.012971 0.240220 
-0.018901 0.012902 0.240216 
-0.018525 0.012929 0.240217 
-0.018124 0.012901 0.240216 
-0.017762 0.012960 0.240219 
-0.017374 0.012960 0.240219 
-0.016917 0.012804 0.240210 
-0.016449 0.012625 0.240199 
-0.016006 0.012503 0.240192 
-0.015597 0.012455 0.240190 
-0.015152 0.012327 0.240182 
-0.014824 0.012464 0.240190 
-0.003699 0.010142 0.240054 
-0.003312 0.010146 0.240054 
-0.002947 0.010198 0.240057 
-0.002530 0.010133 0.240054 
-0.002202 0.010268 0.240062 
-0.001840 0.010326 0.240065 
-0.001522 0.010486 0.240074 
-0.001151 0.010524 0.240077 
-0.000758 0.010513 0.240076 
-0.000292 0.010338 0.240066 
0.000152 0.010213 0.240058 
0.000677 0.009904 0.240040 
0.001172 0.009665 0.240026 
0.001717 0.009312 0.240006 
0.002209 0.009079 0.239992 
0.002697 0.008853 0.239979 
0.003161 0.008683 0.239969 
0.003614 0.008538 0.239960 
0.004023 0.008490 0.239957 
0.004421 0.008469 0.239956 
0.004809 0.008469 0.239956 
0.005191 0.008482 0.239957 
0.005560 0.008527 0.239960 
0.005888 0.008662 0.239968 
0.006218 0.008793 0.239975 
0.006536 0.008950 0.239984 
0.006836 0.009150 0.239996 
0.007143 0.009332 0.240007 
0.007471 0.009467 0.240015 
0.007795 0.009614 0.240023 
0.008122 0.009751 0.240031 
0.008462 0.009860 0.240038 
0.008811 0.009947 0.240043 
0.009160 0.010036 0.240048 
0.009515 0.010110 0.240052 
0.009879 0.010165 0.240056 
0.010216 0.010280 0.240062 
0.010560 0.010379 0.240068 
0.010894 0.010501 0.240075 
0.011244 0.010587 0.240080 
0.011589 0.010686 0.240086 
0.011947 0.010753 0.240090 
0.020777 0.011850 0.240154 
0.021188 0.011799 0.240151 
0.021562 0.011830 0.240153 
0.022013 0.011691 0.240145 
0.022441 0.011600 0.240140 
0.022797 0.011673 0.240144 
0.023215 0.011605 0.240140 
0.023561 0.011702 0.240145 
0.023941 0.011720 0.240147 
0.024309 0.011765 0.240149 
0.024695 0.011769 0.240149 
0.025062 0.011818 0.240152 
0.025409 0.011912 0.240158 
0.025809 0.011884 0.240156 
0.026150 0.011991 0.240162 
0.026484 0.012114 0.240170 
0.026830 0.012208 0.240175 
0.027139 0.012387 0.240186 
0.027487 0.012477 0.240191 
0.027846 0.012542 0.240195 
0.028273 0.012455 0.240190 
0.028605 0.012582 0.240197 
0.028903 0.012784 0.240209 
0.029145 0.013115 0.240228 
0.029379 0.013461 0.240248 
0.029617 0.013799 0.240268 
0.029762 0.014347 0.240300 
0.029857 0.015007 0.240339 
0.030216 0.015073 0.240343 
0.030580 0.015127 0.240346 
0.030971 0.015122 0.240346 
0.031454 0.014908 0.240333 
0.031879 0.014825 0.240328 
0.032274 0.014810 0.240327 
0.032638 0.014866 0.240331 
0.032996 0.014932 0.240334 
0.033387 0.014926 0.240334 
0.033803 0.014863 0.240330 
0.034169 0.014915 0.240333 
0.034492 0.015061 0.240342 
0.034773 0.015302 0.240356 
0.034911 0.015866 0.240389 
0.034990 0.016561 0.240430 
0.035202 0.016959 0.240453 
0.035403 0.017381 0.240478 
-0.027882 0.017390 0.240886 
-0.027287 0.016925 0.240859 
-0.026735 0.016556 0.240837 
-0.026237 0.016308 0.240822 
-0.025726 0.016032 0.240806 
-0.025244 0.015821 0.240794 
-0.024740 0.015560 0.240778 
-0.024174 0.015160 0.240755 
-0.023610 0.014765 0.240732 
-0.023086 0.014460 0.240714 
-0.022588 0.014212 0.240699 
-0.022119 0.014030 0.240688 
-0.021648 0.013844 0.240677 
-0.021143 0.013580 0.240662 
-0.020680 0.013412 0.240652 
-0.020219 0.013250 0.240642 
-0.019703 0.012960 0.240625 
-0.019263 0.012844 0.240618 
-0.018828 0.012740 0.240612 
-0.018407 0.012666 0.240608 
-0.018026 0.012681 0.240609 
-0.017658 0.012727 0.240612 
-0.017238 0.012656 0.240607 
-0.016821 0.012591 0.240604 
-0.016383 0.012479 0.240597 
-0.015980 0.012445 0.240595 
-0.015555 0.012362 0.240590 
-0.015125 0.012270 0.240585 
-0.014766 0.012335 0.240589 
-0.014400 0.012384 0.240591 
-0.014041 0.012451 0.240595 
-0.004100 0.010174 0.240461 
-0.003702 0.010151 0.240460 
-0.003329 0.010185 0.240462 
-0.002952 0.010210 0.240464 
-0.002557 0.010195 0.240463 
-0.002220 0.010311 0.240469 
-0.001887 0.010435 0.240477 
-0.001593 0.010647 0.240489 
-0.001218 0.010676 0.240491 
-0.000792 0.010592 0.240486 
-0.000301 0.010361 0.240472 
0.000167 0.010180 0.240462 
0.000698 0.009859 0.240443 
0.001206 0.009591 0.240427 
0.001742 0.009257 0.240407 
0.002232 0.009029 0.240394 
0.002727 0.008788 0.240380 
0.003182 0.008638 0.240371 
0.003630 0.008503 0.240363 
0.004027 0.008482 0.240362 
0.004437 0.008435 0.240359 
0.004821 0.008443 0.240360 
0.005204 0.008455 0.240360 
0.005577 0.008489 0.240362 
0.005903 0.008630 0.240371 
0.006239 0.008746 0.240377 
0.006555 0.008910 0.240387 
0.006859 0.009100 0.240398 
0.007160 0.009295 0.240410 
0.007489 0.009430 0.240418 
0.007805 0.009591 0.240427 
0.008130 0.009735 0.240436 
0.008458 0.009869 0.240443 
0.008805 0.009963 0.240449 
0.009147 0.010068 0.240455 
0.009499 0.010149 0.240460 
0.009859 0.010213 0.240464 
0.010215 0.010285 0.240468 
0.010581 0.010334 0.240471 
0.010956 0.010365 0.240473 
0.011303 0.010458 0.240478 
0.011630 0.010595 0.240486 
0.011982 0.010677 0.240491 
0.012266 0.010911 0.240505 
0.020052 0.011736 0.240553 
0.020440 0.011737 0.240553 
0.020814 0.011769 0.240555 
0.021201 0.011773 0.240555 
0.021575 0.011804 0.240557 
0.022024 0.011667 0.240549 
0.022438 0.011608 0.240546 
0.022801 0.011666 0.240549 
0.023211 0.011618 0.240546 
0.023563 0.011698 0.240551 
0.023936 0.011733 0.240553 
0.024308 0.011769 0.240555 
0.024697 0.011768 0.240555 
0.025062 0.011821 0.240558 
0.025406 0.011919 0.240564 
0.025799 0.011908 0.240563 
0.026135 0.012026 0.240570 
0.026457 0.012176 0.240579 
0.026783 0.012314 0.240587 
0.027063 0.012558 0.240602 
0.027405 0.012663 0.240608 
0.027772 0.012711 0.240611 
0.028228 0.012559 0.240602 
0.028554 0.012699 0.240610 
0.028868 0.012867 0.240620 
0.029112 0.013189 0.240639 
0.029347 0.013536 0.240659 
0.029438 0.014203 0.240698 
0.029407 0.015148 0.240754 
0.029673 0.015424 0.240770 
0.030068 0.015409 0.240769 
0.030478 0.015358 0.240766 
0.030896 0.015291 0.240762 
0.031393 0.015046 0.240748 
0.031856 0.014880 0.240738 
0.032260 0.014844 0.240736 
0.032621 0.014904 0.240740 
0.032972 0.014988 0.240745 
0.033366 0.014975 0.240744 
0.033776 0.014925 0.240741 
0.034136 0.014990 0.240745 
0.034461 0.015132 0.240753 
0.034751 0.015353 0.240766 
0.034912 0.015866 0.240796 
0.035002 0.016536 0.240836 
0.035201 0.016963 0.240861 
-0.027851 0.017322 0.241289 
-0.027277 0.016903 0.241265 
-0.026752 0.016596 0.241246 
-0.026258 0.016357 0.241232 
-0.025776 0.016148 0.241220 
-0.025320 0.015995 0.241211 
-0.024853 0.015816 0.241200 
-0.024281 0.015403 0.241176 
-0.023676 0.014916 0.241147 
-0.023113 0.014522 0.241124 
-0.022604 0.014250 0.241108 
-0.022133 0.014063 0.241097 
-0.021663 0.013879 0.241086 
-0.021116 0.013522 0.241065 
-0.020660 0.013370 0.241056 
-0.020154 0.013105 0.241040 
-0.019675 0.012899 0.241028 
-0.019229 0.012770 0.241020 
-0.018758 0.012585 0.241009 
-0.018318 0.012466 0.241002 
-0.017937 0.012484 0.241003 
-0.017539 0.012461 0.241002 
-0.017157 0.012474 0.241003 
-0.016761 0.012457 0.241002 
-0.016328 0.012357 0.240996 
-0.015915 0.012301 0.240993 
-0.015428 0.012078 0.240979 
-0.015059 0.012122 0.240982 
-0.014682 0.012149 0.240983 
-0.014285 0.012128 0.240982 
-0.013926 0.012194 0.240986 
-0.013546 0.012211 0.240987 
-0.013202 0.012312 0.240993 
-0.012995 0.012719 0.241017 
-0.004431 0.010045 0.240859 
-0.004113 0.010204 0.240868 
-0.003716 0.010184 0.240867 
-0.003347 0.010228 0.240870 
-0.002963 0.010237 0.240870 
-0.002591 0.010274 0.240873 
-0.002244 0.010367 0.240878 
-0.001969 0.010620 0.240893 
-0.001685 0.010856 0.240907 
-0.001353 0.010982 0.240914 
-0.000822 0.010662 0.240896 
-0.000316 0.010396 0.240880 
0.000179 0.010155 0.240866 
0.000704 0.009847 0.240847 
0.001226 0.009546 0.240830 
0.001755 0.009230 0.240811 
0.002245 0.009001 0.240797 
0.002747 0.008745 0.240782 
0.003206 0.008584 0.240773 
0.003634 0.008496 0.240767 
0.004035 0.008466 0.240766 
0.004441 0.008427 0.240763 
0.004824 0.008438 0.240764 
0.005204 0.008456 0.240765 
0.005583 0.008478 0.240766 
0.005908 0.008620 0.240775 
0.006245 0.008735 0.240782 
0.006564 0.008891 0.240791 
0.006874 0.009068 0.240801 
0.007175 0.009264 0.240813 
0.007496 0.009415 0.240822 
0.007811 0.009579 0.240832 
0.008133 0.009729 0.240840 
0.008453 0.009883 0.240849 
0.008798 0.009981 0.240855 
0.009132 0.010102 0.240862 
0.009476 0.010202 0.240868 
0.009826 0.010287 0.240873 
0.010199 0.010322 0.240875 
0.010582 0.010335 0.240876 
0.010988 0.010295 0.240874 
0.011358 0.010335 0.240876 
0.011679 0.010486 0.240885 
0.012016 0.010602 0.240892 
0.012344 0.010738 0.240900 
0.012604 0.011026 0.240917 
0.019195 0.011919 0.240970 
0.019625 0.011825 0.240964 
0.020050 0.011743 0.240959 
0.020439 0.011742 0.240959 
0.020841 0.011710 0.240958 
0.021214 0.011745 0.240960 
0.021590 0.011771 0.240961 
0.022035 0.011644 0.240954 
0.022439 0.011610 0.240952 
0.022806 0.011656 0.240954 
0.023207 0.011629 0.240953 
0.023568 0.011690 0.240956 
0.023933 0.011741 0.240959 
0.024307 0.011774 0.240961 
0.024691 0.011784 0.240962 
0.025055 0.011839 0.240965 
0.025402 0.011931 0.240971 
0.025778 0.011957 0.240972 
0.026091 0.012128 0.240982 
0.026418 0.012266 0.240990 
0.026722 0.012454 0.241002 
0.026973 0.012763 0.241020 
0.027307 0.012886 0.241027 
0.027685 0.012908 0.241028 
0.028152 0.012731 0.241018 
0.028505 0.012811 0.241023 
0.028817 0.012981 0.241033 
0.029051 0.013329 0.241053 
0.028276 0.015949 0.241208 
0.028819 0.015600 0.241188 
0.029261 0.015480 0.241180 
0.029614 0.015558 0.241185 
0.030011 0.015538 0.241184 
0.030457 0.015408 0.241176 
0.030875 0.015342 0.241172 
0.031379 0.015081 0.241157 
0.031834 0.014930 0.241148 
0.032251 0.014866 0.241144 
0.032611 0.014929 0.241148 
0.032959 0.015020 0.241153 
0.033343 0.015029 0.241154 
0.033735 0.015020 0.241153 
0.034100 0.015072 0.241156 
0.034425 0.015215 0.241165 
0.034726 0.015412 0.241177 
0.034898 0.015898 0.241205 
0.035007 0.016528 0.241242 
0.035199 0.016968 0.241269 
-0.027821 0.017256 0.241693 
-0.027270 0.016890 0.241671 
-0.026771 0.016640 0.241656 
-0.026277 0.016404 0.241642 
-0.025811 0.016228 0.241632 
-0.025413 0.016206 0.241631 
-0.024993 0.016135 0.241626 
-0.024598 0.016118 0.241625 
-0.024562 0.016912 0.241673 
-0.023145 0.014595 0.241535 
-0.022632 0.014316 0.241518 
-0.022151 0.014106 0.241506 
-0.021683 0.013927 0.241495 
-0.021130 0.013556 0.241473 
-0.020652 0.013353 0.241461 
-0.020120 0.013030 0.241442 
-0.019651 0.012847 0.241431 
-0.019178 0.012656 0.241420 
-0.018703 0.012460 0.241408 
-0.018255 0.012326 0.241400 
-0.017864 0.012320 0.241400 
-0.017464 0.012295 0.241398 
-0.017085 0.012316 0.241399 
-0.016660 0.012232 0.241394 
-0.016251 0.012186 0.241392 
-0.015809 0.012064 0.241384 
-0.015375 0.011962 0.241378 
-0.014992 0.011974 0.241379 
-0.014626 0.012024 0.241382 
-0.014231 0.012007 0.241381 
-0.013867 0.012062 0.241384 
-0.013495 0.012098 0.241386 
-0.013167 0.012236 0.241395 
-0.012919 0.012551 0.241413 
-0.004456 0.010104 0.241268 
-0.004133 0.010250 0.241277 
-0.003740 0.010240 0.241276 
-0.003369 0.010279 0.241278 
-0.002983 0.010285 0.241279 
-0.002635 0.010374 0.241284 
-0.002297 0.010489 0.241291 
-0.002104 0.010928 0.241317 
-0.001894 0.011328 0.241341 
-0.001537 0.011399 0.241345 
-0.000843 0.010711 0.241304 
-0.000333 0.010437 0.241288 
0.000186 0.010142 0.241270 
0.000699 0.009861 0.241253 
0.001227 0.009547 0.241235 
0.001760 0.009221 0.241215 
0.002248 0.008996 0.241202 
0.002752 0.008735 0.241186 
0.003211 0.008576 0.241177 
0.003626 0.008514 0.241173 
0.004029 0.008483 0.241171 
0.004430 0.008453 0.241170 
0.004822 0.008445 0.241169 
0.005196 0.008477 0.241171 
0.005576 0.008495 0.241172 
0.005906 0.008626 0.241180 
0.006235 0.008759 0.241188 
0.006563 0.008895 0.241196 
0.006881 0.009053 0.241205 
0.007188 0.009236 0.241216 
0.007501 0.009407 0.241226 
0.007818 0.009567 0.241236 
0.008133 0.009731 0.241246 
0.008445 0.009903 0.241256 
0.008789 0.010003 0.241262 
0.009116 0.010140 0.241270 
0.009456 0.010248 0.241276 
0.009777 0.010399 0.241285 
0.010152 0.010431 0.241287 
0.010557 0.010393 0.241285 
0.011005 0.010259 0.241277 
0.011398 0.010246 0.241276 
0.011744 0.010341 0.241282 
0.012042 0.010544 0.241294 
0.012395 0.010625 0.241299 
0.012672 0.010874 0.241314 
0.012911 0.011211 0.241334 
0.013183 0.011473 0.241349 
0.018869 0.011783 0.241368 
0.019226 0.011852 0.241372 
0.019623 0.011832 0.241371 
0.020048 0.011750 0.241366 
0.020442 0.011737 0.241365 
0.020857 0.011676 0.241361 
0.021227 0.011718 0.241364 
0.021608 0.011735 0.241365 
0.022044 0.011627 0.241358 
0.022438 0.011613 0.241358 
0.022812 0.011645 0.241359 
0.023203 0.011639 0.241359 
0.023572 0.011681 0.241362 
0.023930 0.011750 0.241366 
0.024302 0.011786 0.241368 
0.024676 0.011819 0.241370 
0.025038 0.011879 0.241373 
0.025390 0.011959 0.241378 
0.025750 0.012024 0.241382 
0.026056 0.012207 0.241393 
0.025116 0.015199 0.241571 
0.025489 0.015232 0.241573 
0.025872 0.015244 0.241573 
0.026232 0.015307 0.241577 
0.027591 0.013123 0.241447 
0.028064 0.012932 0.241436 
0.028442 0.012953 0.241437 
0.028744 0.013149 0.241449 
0.027908 0.015905 0.241613 
0.028331 0.015827 0.241608 
0.028747 0.015763 0.241604 
0.029189 0.015642 0.241597 
0.029572 0.015655 0.241598 
0.029982 0.015606 0.241595 
0.030460 0.015404 0.241583 
0.030900 0.015287 0.241576 
0.031403 0.015028 0.241561 
0.031856 0.014882 0.241552 
0.032248 0.014873 0.241551 
0.032608 0.014937 0.241555 
0.032947 0.015048 0.241562 
0.033319 0.015086 0.241564 
0.033702 0.015098 0.241565 
0.034064 0.015155 0.241568 
0.034405 0.015261 0.241574 
0.034693 0.015487 0.241588 
0.034874 0.015954 0.241616 
0.034997 0.016552 0.241651 
-0.027796 0.017204 0.242097 
-0.027267 0.016886 0.242078 
-0.026796 0.016700 0.242067 
-0.026294 0.016443 0.242052 
-0.025841 0.016298 0.242043 
-0.025468 0.016331 0.242045 
-0.025096 0.016368 0.242047 
-0.024807 0.016591 0.242061 
-0.024622 0.017048 0.242088 
-0.024413 0.017453 0.242112 
-0.022673 0.014408 0.241930 
-0.022179 0.014171 0.241916 
-0.021707 0.013983 0.241905 
-0.021160 0.013624 0.241884 
-0.020654 0.013360 0.241868 
-0.020131 0.013056 0.241850 
-0.019641 0.012828 0.241836 
-0.019155 0.012608 0.241823 
-0.018710 0.012479 0.241815 
-0.018221 0.012251 0.241801 
-0.017830 0.012247 0.241801 
-0.017410 0.012174 0.241797 
-0.017026 0.012184 0.241797 
-0.016601 0.012100 0.241792 
-0.016193 0.012057 0.241790 
-0.015746 0.011926 0.241782 
-0.015325 0.011850 0.241777 
-0.014945 0.011870 0.241779 
-0.014579 0.011920 0.241782 
-0.014191 0.011920 0.241782 
-0.013819 0.011957 0.241784 
-0.013448 0.011995 0.241786 
-0.013119 0.012128 0.241794 
-0.012824 0.012339 0.241807 
-0.012465 0.012404 0.241811 
-0.012111 0.012480 0.241815 
-0.004843 0.010103 0.241673 
-0.004483 0.010167 0.241677 
-0.004152 0.010296 0.241685 
-0.003764 0.010296 0.241685 
-0.003394 0.010336 0.241687 
-0.003016 0.010359 0.241688 
-0.002682 0.010482 0.241696 
-0.002368 0.010649 0.241706 
-0.002258 0.011277 0.241743 
-0.002123 0.011845 0.241777 
-0.001726 0.011826 0.241776 
-0.000854 0.010738 0.241711 
-0.000347 0.010469 0.241695 
0.000186 0.010143 0.241675 
0.000687 0.009890 0.241660 
0.001211 0.009584 0.241642 
0.001756 0.009231 0.241621 
0.002239 0.009018 0.241608 
0.002742 0.008759 0.241593 
0.003189 0.008627 0.241585 
0.003610 0.008553 0.241580 
0.004012 0.008523 0.241579 
0.004422 0.008473 0.241576 
0.004813 0.008466 0.241575 
0.005181 0.008513 0.241578 
0.005559 0.008535 0.241579 
0.005897 0.008650 0.241586 
0.006217 0.008803 0.241595 
0.006554 0.008918 0.241602 
0.006881 0.009055 0.241610 
0.007195 0.009223 0.241620 
0.007503 0.009404 0.241631 
0.007822 0.009560 0.241641 
0.008131 0.009736 0.241651 
0.008437 0.009923 0.241662 
0.008779 0.010027 0.241669 
0.009096 0.010188 0.241678 
0.009428 0.010314 0.241686 
0.009734 0.010499 0.241697 
0.010082 0.010590 0.241702 
0.010497 0.010530 0.241699 
0.011005 0.010260 0.241682 
0.011431 0.010175 0.241677 
0.011778 0.010267 0.241683 
0.012095 0.010427 0.241692 
0.012431 0.010544 0.241699 
0.012739 0.010726 0.241710 
0.013026 0.010954 0.241724 
0.013234 0.011360 0.241748 
0.013478 0.011685 0.241768 
0.018050 0.011879 0.241779 
0.018408 0.011947 0.241783 
0.018866 0.011791 0.241774 
0.019251 0.011798 0.241774 
0.019633 0.011811 0.241775 
0.020055 0.011736 0.241771 
0.020451 0.011718 0.241770 
0.020866 0.011658 0.241766 
0.021239 0.011693 0.241768 
0.021626 0.011695 0.241768 
0.022045 0.011624 0.241764 
0.022434 0.011625 0.241764 
0.022816 0.011639 0.241765 
0.023198 0.011653 0.241766 
0.023574 0.011680 0.241767 
0.023921 0.011772 0.241773 
0.024293 0.011810 0.241775 
0.024654 0.011870 0.241779 
0.025013 0.011937 0.241783 
0.023876 0.015369 0.241988 
0.024275 0.015346 0.241986 
0.024735 0.015185 0.241977 
0.025089 0.015260 0.241981 
0.025451 0.015320 0.241985 
0.025858 0.015277 0.241982 
0.026152 0.015490 0.241995 
0.026508 0.015563 0.241999 
0.026849 0.015668 0.242006 
0.027188 0.015779 0.242012 
0.027569 0.015796 0.242013 
0.027896 0.015934 0.242022 
0.028319 0.015855 0.242017 
0.028703 0.015865 0.242017 
0.029131 0.015776 0.242012 
0.029540 0.015728 0.242009 
0.029977 0.015618 0.242003 
0.030497 0.015323 0.241985 
0.030961 0.015152 0.241975 
0.031468 0.014885 0.241959 
0.031872 0.014848 0.241957 
0.032251 0.014870 0.241958 
0.032608 0.014940 0.241962 
0.032935 0.015077 0.241970 
0.033291 0.015150 0.241975 
0.033665 0.015183 0.241977 
0.034026 0.015244 0.241980 
0.034373 0.015336 0.241986 
0.034657 0.015572 0.242000 
0.034845 0.016022 0.242027 
-0.027790 0.017190 0.242504 
-0.027271 0.016896 0.242486 
-0.026800 0.016709 0.242475 
-0.026306 0.016472 0.242461 
-0.025868 0.016360 0.242454 
-0.025505 0.016416 0.242458 
-0.025162 0.016519 0.242464 
-0.024874 0.016744 0.242477 
-0.024646 0.017104 0.242499 
-0.024413 0.017453 0.242520 
-0.024107 0.017640 0.242531 
-0.023743 0.017695 0.242534 
-0.021732 0.014042 0.242315 
-0.021192 0.013699 0.242294 
-0.020665 0.013387 0.242276 
-0.020119 0.013031 0.242254 
-0.019644 0.012836 0.242243 
-0.019149 0.012595 0.242228 
-0.018697 0.012453 0.242220 
-0.018228 0.012270 0.242209 
-0.017789 0.012156 0.242202 
-0.017363 0.012071 0.242197 
-0.016968 0.012055 0.242196 
-0.016543 0.011973 0.242191 
-0.016120 0.011894 0.242186 
-0.015674 0.011764 0.242178 
-0.015273 0.011737 0.242177 
-0.014891 0.011751 0.242177 
-0.014522 0.011792 0.242180 
-0.014145 0.011819 0.242181 
-0.013755 0.011814 0.242181 
-0.013396 0.011881 0.242185 
-0.013073 0.012026 0.242194 
-0.012748 0.012171 0.242203 
-0.012413 0.012288 0.242210 
-0.012073 0.012398 0.242216 
-0.011729 0.012497 0.242222 
-0.011395 0.012620 0.242230 
-0.005237 0.010119 0.242079 
-0.004863 0.010151 0.242081 
-0.004508 0.010225 0.242086 
-0.004170 0.010338 0.242092 
-0.003786 0.010348 0.242093 
-0.003434 0.010429 0.242098 
-0.003054 0.010449 0.242099 
-0.002722 0.010575 0.242107 
-0.002471 0.010883 0.242125 
-0.002466 0.011747 0.242177 
-0.002249 0.012132 0.242200 
-0.001856 0.012121 0.242200 
-0.000856 0.010745 0.242117 
-0.000352 0.010482 0.242101 
0.000180 0.010159 0.242082 
0.000673 0.009923 0.242068 
0.001188 0.009639 0.242050 
0.001741 0.009267 0.242028 
0.002215 0.009074 0.242017 
0.002716 0.008819 0.242001 
0.003172 0.008666 0.241992 
0.003588 0.008605 0.241988 
0.003996 0.008561 0.241986 
0.004395 0.008537 0.241984 
0.004795 0.008509 0.241983 
0.005161 0.008560 0.241986 
0.005536 0.008590 0.241987 
0.005880 0.008688 0.241993 
0.006196 0.008852 0.242003 
0.006539 0.008955 0.242009 
0.006873 0.009075 0.242017 
0.007189 0.009237 0.242026 
0.007501 0.009409 0.242037 
0.007820 0.009565 0.242046 
0.008128 0.009746 0.242057 
0.008431 0.009938 0.242068 
0.008766 0.010058 0.242076 
0.009068 0.010251 0.242087 
0.009394 0.010393 0.242096 
0.009689 0.010602 0.242108 
0.009989 0.010801 0.242120 
0.010389 0.010774 0.242119 
0.010982 0.010314 0.242091 
0.011449 0.010137 0.242080 
0.011799 0.010221 0.242085 
0.012138 0.010333 0.242092 
0.012460 0.010483 0.242101 
0.012784 0.010626 0.242110 
0.013059 0.010882 0.242125 
0.013272 0.011276 0.242149 
0.013514 0.011605 0.242169 
0.013836 0.011754 0.242178 
0.014102 0.012029 0.242194 
0.017538 0.012161 0.242202 
0.018034 0.011917 0.242187 
0.018418 0.011926 0.242188 
0.018869 0.011785 0.242179 
0.019273 0.011750 0.242177 
0.019658 0.011758 0.242178 
0.020074 0.011694 0.242174 
0.020467 0.011684 0.242173 
0.020869 0.011653 0.242171 
0.021250 0.011668 0.242172 
0.021648 0.011646 0.242171 
0.022039 0.011640 0.242171 
0.022421 0.011655 0.242172 
0.022814 0.011644 0.242171 
0.023188 0.011676 0.242173 
0.023567 0.011697 0.242174 
0.023899 0.011823 0.242182 
0.024274 0.011853 0.242184 
0.024634 0.011918 0.242187 
0.023481 0.015388 0.242396 
0.023842 0.015448 0.242399 
0.024263 0.015374 0.242395 
0.024698 0.015270 0.242389 
0.025058 0.015332 0.242393 
0.025428 0.015373 0.242395 
0.025837 0.015328 0.242392 
0.026167 0.015459 0.242400 
0.026496 0.015592 0.242408 
0.026847 0.015675 0.242413 
0.027192 0.015773 0.242419 
0.027564 0.015808 0.242421 
0.027901 0.015924 0.242428 
0.028308 0.015882 0.242426 
0.028684 0.015911 0.242427 
0.029098 0.015851 0.242424 
0.029522 0.015772 0.242419 
0.030012 0.015541 0.242405 
0.030565 0.015171 0.242383 
0.031056 0.014939 0.242369 
0.031508 0.014796 0.242360 
0.031887 0.014816 0.242362 
0.032256 0.014861 0.242364 
0.032604 0.014951 0.242370 
0.032921 0.015112 0.242379 
0.033262 0.015217 0.242386 
0.033631 0.015261 0.242388 
0.033985 0.015337 0.242393 
0.034337 0.015420 0.242398 
0.034623 0.015651 0.242412 
0.034825 0.016068 0.242437 
-0.027794 0.017201 0.242912 
-0.027279 0.016917 0.242895 
-0.026801 0.016714 0.242883 
-0.026315 0.016495 0.242870 
-0.025892 0.016415 0.242865 
-0.025527 0.016468 0.242868 
-0.025196 0.016598 0.242876 
-0.024899 0.016802 0.242888 
-0.024642 0.017098 0.242906 
-0.024401 0.017430 0.242926 
-0.024106 0.017639 0.242939 
-0.023736 0.017680 0.242941 
-0.023348 0.017681 0.242941 
-0.022974 0.017713 0.242943 
-0.020679 0.013420 0.242684 
-0.020118 0.013031 0.242660 
-0.019655 0.012863 0.242650 
-0.019153 0.012606 0.242635 
-0.018694 0.012446 0.242625 
-0.018223 0.012260 0.242614 
-0.017742 0.012052 0.242601 
-0.017324 0.011986 0.242597 
-0.016916 0.011940 0.242595 
-0.016494 0.011864 0.242590 
-0.016051 0.011741 0.242583 
-0.015609 0.011621 0.242575 
-0.015225 0.011629 0.242576 
-0.014837 0.011630 0.242576 
-0.014471 0.011679 0.242579 
-0.014078 0.011670 0.242578 
-0.013681 0.011650 0.242577 
-0.013333 0.011740 0.242582 
-0.012993 0.011850 0.242589 
-0.012669 0.011992 0.242598 
-0.012340 0.012126 0.242606 
-0.012019 0.012279 0.242615 
-0.011681 0.012391 0.242622 
-0.011359 0.012540 0.242631 
-0.005247 0.010142 0.242486 
-0.004879 0.010187 0.242489 
-0.004527 0.010270 0.242494 
-0.004188 0.010379 0.242500 
-0.003818 0.010421 0.242503 
-0.003470 0.010513 0.242508 
-0.003108 0.010570 0.242512 
-0.002778 0.010702 0.242520 
-0.002563 0.011092 0.242543 
-0.002605 0.012061 0.242602 
-0.002354 0.012369 0.242620 
-0.001978 0.012398 0.242622 
-0.000848 0.010728 0.242521 
-0.000354 0.010490 0.242507 
0.000167 0.010191 0.242489 
0.000654 0.009967 0.242475 
0.001161 0.009700 0.242459 
0.001712 0.009334 0.242437 
0.002170 0.009177 0.242428 
0.002679 0.008905 0.242411 
0.003148 0.008723 0.242400 
0.003554 0.008683 0.242398 
0.003968 0.008626 0.242394 
0.004360 0.008616 0.242394 
0.004769 0.008570 0.242391 
0.005135 0.008620 0.242394 
0.005497 0.008678 0.242398 
0.005858 0.008741 0.242401 
0.006176 0.008898 0.242411 
0.006518 0.009003 0.242417 
0.006857 0.009113 0.242424 
0.007174 0.009273 0.242434 
0.007491 0.009433 0.242443 
0.007810 0.009589 0.242453 
0.008120 0.009767 0.242463 
0.008424 0.009957 0.242475 
0.008746 0.010105 0.242484 
0.009044 0.010308 0.242496 
0.009353 0.010487 0.242507 
0.009630 0.010736 0.242522 
0.009880 0.011047 0.242541 
0.010226 0.011143 0.242546 
0.010931 0.010431 0.242503 
0.011453 0.010129 0.242485 
0.011812 0.010195 0.242489 
0.012165 0.010275 0.242494 
0.012493 0.010409 0.242502 
0.012816 0.010557 0.242511 
0.013089 0.010816 0.242527 
0.013315 0.011180 0.242549 
0.013583 0.011452 0.242565 
0.013891 0.011633 0.242576 
0.014125 0.011979 0.242597 
0.014365 0.012314 0.242617 
0.014717 0.012395 0.242622 
0.015021 0.012583 0.242633 
0.015305 0.012818 0.242648 
0.015671 0.012870 0.242651 
0.016038 0.012918 0.242654 
0.016650 0.012413 0.242623 
0.017067 0.012349 0.242619 
0.017516 0.012211 0.242611 
0.018035 0.011917 0.242593 
0.018454 0.011848 0.242589 
0.018887 0.011747 0.242583 
0.019300 0.011692 0.242580 
0.019689 0.011690 0.242580 
0.020097 0.011646 0.242577 
0.020484 0.011648 0.242577 
0.020870 0.011654 0.242577 
0.021259 0.011652 0.242577 
0.021653 0.011639 0.242576 
0.022030 0.011664 0.242578 
0.022398 0.011709 0.242581 
0.022806 0.011665 0.242578 
0.023177 0.011703 0.242580 
0.023554 0.011729 0.242582 
0.023879 0.011870 0.242590 
0.024245 0.011920 0.242593 
0.023080 0.015418 0.242805 
0.023468 0.015417 0.242805 
0.023830 0.015478 0.242808 
0.024233 0.015443 0.242806 
0.024662 0.015353 0.242801 
0.025049 0.015355 0.242801 
0.025434 0.015362 0.242801 
0.025818 0.015371 0.242802 
0.026158 0.015481 0.242808 
0.026494 0.015598 0.242815 
0.026856 0.015658 0.242819 
0.027203 0.015750 0.242825 
0.027566 0.015807 0.242828 
0.027920 0.015883 0.242833 
0.028306 0.015888 0.242833 
0.028685 0.015909 0.242834 
0.029098 0.015854 0.242831 
0.029534 0.015747 0.242824 
0.030130 0.015279 0.242796 
0.030655 0.014970 0.242778 
0.031124 0.014788 0.242767 
0.031538 0.014731 0.242763 
0.031897 0.014795 0.242767 
0.032260 0.014852 0.242770 
0.032598 0.014967 0.242777 
0.032907 0.015145 0.242788 
0.033232 0.015286 0.242797 
0.033603 0.015325 0.242799 
0.033965 0.015386 0.242803 
0.034266 0.015581 0.242814 
0.034606 0.015689 0.242821 
-0.027798 0.017213 0.243321 
-0.027291 0.016946 0.243304 
-0.026808 0.016731 0.243291 
-0.026325 0.016519 0.243278 
-0.025912 0.016463 0.243275 
-0.025538 0.016495 0.243277 
-0.025205 0.016620 0.243284 
-0.024888 0.016780 0.243294 
-0.024610 0.017028 0.243309 
-0.024371 0.017363 0.243330 
-0.024092 0.017609 0.243345 
-0.023723 0.017652 0.243347 
-0.023328 0.017637 0.243346 
-0.022952 0.017666 0.243348 
-0.022440 0.017386 0.243331 
-0.020131 0.013062 0.243069 
-0.019673 0.012905 0.243059 
-0.019162 0.012629 0.243042 
-0.018681 0.012419 0.243030 
-0.018225 0.012268 0.243020 
-0.017731 0.012029 0.243006 
-0.017303 0.011939 0.243000 
-0.016881 0.011864 0.242996 
-0.016457 0.011784 0.242991 
-0.016003 0.011634 0.242982 
-0.015566 0.011526 0.242975 
-0.015170 0.011507 0.242974 
-0.014779 0.011501 0.242974 
-0.014410 0.011544 0.242976 
-0.014005 0.011508 0.242974 
-0.013604 0.011479 0.242972 
-0.013249 0.011552 0.242977 
-0.012882 0.011601 0.242980 
-0.012560 0.011749 0.242989 
-0.012216 0.011850 0.242995 
-0.011927 0.012072 0.243008 
-0.011598 0.012206 0.243017 
-0.011252 0.012301 0.243022 
-0.010836 0.012239 0.243019 
-0.005592 0.010047 0.242886 
-0.005254 0.010160 0.242892 
-0.004899 0.010234 0.242897 
-0.004542 0.010304 0.242901 
-0.004211 0.010433 0.242909 
-0.003851 0.010498 0.242913 
-0.003513 0.010610 0.242920 
-0.003178 0.010730 0.242927 
-0.002876 0.010926 0.242939 
-0.002774 0.012444 0.243031 
-0.002480 0.012655 0.243044 
-0.002072 0.012611 0.243041 
-0.000829 0.010687 0.242924 
-0.000362 0.010510 0.242914 
0.000146 0.010241 0.242897 
0.000625 0.010035 0.242885 
0.001137 0.009758 0.242868 
0.001671 0.009428 0.242848 
0.002132 0.009263 0.242838 
0.002634 0.009008 0.242822 
0.003117 0.008796 0.242810 
0.003513 0.008777 0.242808 
0.003932 0.008708 0.242804 
0.004323 0.008702 0.242804 
0.004724 0.008673 0.242802 
0.005097 0.008707 0.242804 
0.005467 0.008748 0.242807 
0.005830 0.008805 0.242810 
0.006157 0.008944 0.242819 
0.006490 0.009066 0.242826 
0.006833 0.009168 0.242832 
0.007153 0.009323 0.242842 
0.007469 0.009485 0.242851 
0.007790 0.009637 0.242861 
0.008102 0.009809 0.242871 
0.008408 0.009994 0.242882 
0.008715 0.010178 0.242893 
0.009008 0.010391 0.242906 
0.009314 0.010576 0.242918 
0.009550 0.010919 0.242938 
0.009758 0.011324 0.242963 
0.010067 0.011502 0.242974 
0.010378 0.011677 0.242984 
0.011444 0.010151 0.242892 
0.011814 0.010191 0.242894 
0.012176 0.010250 0.242898 
0.012514 0.010364 0.242905 
0.012840 0.010505 0.242913 
0.013116 0.010756 0.242929 
0.013358 0.011086 0.242949 
0.013647 0.011310 0.242962 
0.013938 0.011530 0.242976 
0.014181 0.011854 0.242995 
0.014433 0.012161 0.243014 
0.014760 0.012299 0.243022 
0.015073 0.012468 0.243033 
0.015365 0.012686 0.243046 
0.015708 0.012788 0.243052 
0.016085 0.012814 0.243053 
0.016659 0.012394 0.243028 
0.017090 0.012300 0.243022 
0.017546 0.012147 0.243013 
0.018072 0.011836 0.242994 
0.018510 0.011724 0.242987 
0.018916 0.011684 0.242985 
0.019332 0.011622 0.242981 
0.019719 0.011624 0.242981 
0.020115 0.011606 0.242980 
0.020498 0.011619 0.242981 
0.020869 0.011658 0.242983 
0.021259 0.011652 0.242983 
0.021645 0.011658 0.242983 
0.022017 0.011694 0.242986 
0.022361 0.011794 0.242992 
0.022781 0.011723 0.242987 
0.023169 0.011723 0.242987 
0.023543 0.011755 0.242989 
0.023850 0.011938 0.243000 
0.023031 0.015531 0.243218 
0.023439 0.015484 0.243216 
0.023818 0.015506 0.243217 
0.024221 0.015474 0.243215 
0.024643 0.015396 0.243210 
0.025037 0.015385 0.243210 
0.025417 0.015404 0.243211 
0.025803 0.015407 0.243211 
0.026160 0.015478 0.243215 
0.026503 0.015580 0.243221 
0.026880 0.015605 0.243223 
0.027227 0.015698 0.243229 
0.027580 0.015778 0.243233 
0.027952 0.015815 0.243236 
0.028322 0.015855 0.243238 
0.028712 0.015850 0.243238 
0.029143 0.015753 0.243232 
0.029636 0.015518 0.243218 
0.030284 0.014933 0.243182 
0.030749 0.014761 0.243172 
0.031171 0.014686 0.243167 
0.031555 0.014694 0.243168 
0.031902 0.014787 0.243173 
0.032263 0.014850 0.243177 
0.032592 0.014981 0.243185 
0.032897 0.015170 0.243197 
0.033207 0.015346 0.243207 
0.033579 0.015381 0.243209 
0.033926 0.015474 0.243215 
0.034234 0.015656 0.243226 
-0.027810 0.017242 0.243730 
-0.027304 0.016978 0.243714 
-0.026814 0.016747 0.243700 
-0.026337 0.016548 0.243687 
-0.025929 0.016503 0.243685 
-0.025544 0.016510 0.243685 
-0.025198 0.016605 0.243691 
-0.024857 0.016713 0.243697 
-0.024553 0.016903 0.243709 
-0.024311 0.017232 0.243729 
-0.024063 0.017545 0.243748 
-0.023694 0.017589 0.243751 
-0.023303 0.017584 0.243751 
-0.022924 0.017605 0.243752 
-0.022344 0.017172 0.243726 
-0.021785 0.016787 0.243702 
-0.021283 0.016531 0.243686 
-0.019179 0.012668 0.243451 
-0.018711 0.012490 0.243440 
-0.018241 0.012304 0.243429 
-0.017755 0.012086 0.243415 
-0.017302 0.011940 0.243406 
-0.016864 0.011827 0.243399 
-0.016436 0.011739 0.243394 
-0.015976 0.011576 0.243384 
-0.015541 0.011471 0.243378 
-0.015128 0.011416 0.243374 
-0.014733 0.011401 0.243373 
-0.014341 0.011390 0.243373 
-0.013936 0.011354 0.243371 
-0.013532 0.011317 0.243368 
-0.013156 0.011347 0.243370 
-0.012770 0.011350 0.243370 
-0.012434 0.011469 0.243378 
-0.012109 0.011611 0.243386 
-0.011807 0.011804 0.243398 
-0.011447 0.011868 0.243402 
-0.011105 0.011973 0.243408 
-0.010739 0.012023 0.243411 
-0.010408 0.012152 0.243419 
-0.010092 0.012313 0.243429 
-0.009752 0.012422 0.243436 
-0.009395 0.012493 0.243440 
-0.005991 0.010074 0.243292 
-0.005610 0.010089 0.243293 
-0.005259 0.010173 0.243298 
-0.004907 0.010256 0.243304 
-0.004554 0.010335 0.243308 
-0.004233 0.010485 0.243318 
-0.003897 0.010603 0.243325 
-0.003571 0.010742 0.243333 
-0.003275 0.010952 0.243346 
-0.002870 0.012660 0.243450 
-0.002557 0.012830 0.243461 
-0.002155 0.012801 0.243459 
-0.000800 0.010624 0.243326 
-0.000376 0.010543 0.243321 
0.000117 0.010306 0.243307 
0.000583 0.010131 0.243296 
0.001101 0.009839 0.243278 
0.001627 0.009530 0.243259 
0.002093 0.009353 0.243248 
0.002589 0.009112 0.243234 
0.003076 0.008889 0.243220 
0.003467 0.008883 0.243220 
0.003888 0.008809 0.243215 
0.004288 0.008783 0.243214 
0.004686 0.008761 0.243212 
0.005058 0.008798 0.243215 
0.005431 0.008831 0.243217 
0.005796 0.008883 0.243220 
0.006132 0.009001 0.243227 
0.006456 0.009145 0.243236 
0.006791 0.009267 0.243243 
0.007124 0.009389 0.243251 
0.007439 0.009556 0.243261 
0.007758 0.009710 0.243270 
0.008069 0.009886 0.243281 
0.008383 0.010052 0.243291 
0.008677 0.010264 0.243304 
0.008969 0.010482 0.243317 
0.009267 0.010683 0.243330 
0.009468 0.011105 0.243355 
0.009670 0.011525 0.243381 
0.009945 0.011780 0.243397 
0.010235 0.012000 0.243410 
0.011423 0.010201 0.243300 
0.011811 0.010200 0.243300 
0.012182 0.010240 0.243303 
0.012526 0.010338 0.243309 
0.012855 0.010472 0.243317 
0.013140 0.010704 0.243331 
0.013397 0.011000 0.243349 
0.013691 0.011213 0.243362 
0.013985 0.011425 0.243375 
0.014244 0.011716 0.243393 
0.014521 0.011966 0.243408 
0.014813 0.012183 0.243421 
0.015128 0.012347 0.243431 
0.015417 0.012570 0.243445 
0.015764 0.012664 0.243450 
0.016216 0.012521 0.243442 
0.016688 0.012332 0.243430 
0.017131 0.012209 0.243423 
0.017617 0.011989 0.243409 
0.018117 0.011735 0.243394 
0.018559 0.011615 0.243386 
0.018956 0.011596 0.243385 
0.019358 0.011565 0.243383 
0.019740 0.011577 0.243384 
0.020125 0.011587 0.243385 
0.020505 0.011605 0.243386 
0.020862 0.011675 0.243390 
0.021249 0.011677 0.243390 
0.021639 0.011674 0.243390 
0.022003 0.011729 0.243393 
0.022315 0.011901 0.243404 
0.022973 0.015662 0.243633 
0.023411 0.015551 0.243627 
0.023809 0.015529 0.243625 
0.024211 0.015498 0.243623 
0.024633 0.015421 0.243619 
0.025034 0.015394 0.243617 
0.025410 0.015420 0.243619 
0.025802 0.015413 0.243618 
0.026177 0.015442 0.243620 
0.026525 0.015532 0.243625 
0.026917 0.015525 0.243625 
0.027267 0.015609 0.243630 
0.027625 0.015678 0.243634 
0.027989 0.015733 0.243638 
0.028359 0.015774 0.243640 
0.028776 0.015709 0.243636 
0.029262 0.015488 0.243623 
0.030014 0.014670 0.243573 
0.030387 0.014705 0.243575 
0.030807 0.014632 0.243571 
0.031199 0.014625 0.243570 
0.031562 0.014680 0.243573 
0.031901 0.014792 0.243580 
0.032260 0.014856 0.243584 
0.032584 0.015003 0.243593 
0.032887 0.015194 0.243605 
0.033184 0.015400 0.243617 
0.033552 0.015444 0.243620 
0.033887 0.015565 0.243627 
-0.027309 0.016990 0.244122 
-0.026804 0.016726 0.244106 
-0.026351 0.016581 0.244097 
-0.025940 0.016531 0.244094 
-0.025547 0.016520 0.244093 
-0.025178 0.016563 0.244096 
-0.024819 0.016628 0.244100 
-0.024491 0.016764 0.244108 
-0.024189 0.016959 0.244120 
-0.023963 0.017322 0.244142 
-0.023634 0.017456 0.244150 
-0.023269 0.017509 0.244154 
-0.022887 0.017523 0.244154 
-0.022133 0.016699 0.244104 
-0.021649 0.016485 0.244091 
-0.021171 0.016281 0.244078 
-0.020642 0.015965 0.244059 
-0.020149 0.015728 0.244044 
-0.019658 0.015497 0.244030 
-0.019198 0.015336 0.244020 
-0.018782 0.015273 0.244017 
-0.018360 0.015198 0.244012 
-0.016437 0.011743 0.243800 
-0.015968 0.011560 0.243789 
-0.015512 0.011407 0.243779 
-0.015100 0.011354 0.243776 
-0.014695 0.011315 0.243774 
-0.014289 0.011276 0.243771 
-0.013888 0.011248 0.243770 
-0.013470 0.011179 0.243766 
-0.013066 0.011145 0.243763 
-0.012679 0.011147 0.243764 
-0.012317 0.011207 0.243767 
-0.011987 0.011338 0.243775 
-0.011627 0.011401 0.243779 
-0.011279 0.011493 0.243785 
-0.010940 0.011604 0.243792 
-0.010640 0.011801 0.243804 
-0.010335 0.011990 0.243815 
