# .PCD v0.7 - Point Cloud Data file format
VERSION 0.7
FIELDS x y z
SIZE 4 4 4
TYPE F F F
COUNT 1 1 1
WIDTH 1328
HEIGHT 1
VIEWPOINT 0 0 0 1 0 0 0
POINTS 1328
DATA ascii
0.012564369 0.037101101 0.086875483
0.013020651 0.037128001 0.087190844
0.013476937 0.037154801 0.087506205
0.01398957 0.037141401 0.087465808
0.014502186 0.037128001 0.0874255
0.014977258 0.037141401 0.08762224
0.015471101 0.037141401 0.087700456
0.015983718 0.037128001 0.087660149
0.016496332 0.037114501 0.087619841
0.016971406 0.037128001 0.087816589
0.017502809 0.037101101 0.08765766
0.018034216 0.037074301 0.087498732
0.018584393 0.037034001 0.087221287
0.019097004 0.037020601 0.087180972
0.019628409 0.036993802 0.087022051
0.020122256 0.036993802 0.087100267
0.020766325 0.036886401 0.086230002
0.021335289 0.036832701 0.085833937
0.021885462 0.036792502 0.085556485
0.022416869 0.036765601 0.085397564
0.022967041 0.036725398 0.085120112
0.023573551 0.036644898 0.084486991
0.024161287 0.036577798 0.083972402
0.024673922 0.036564399 0.083931997
0.025205325 0.036537498 0.083773069
0.026418343 0.036376499 0.082506835
0.026893415 0.036389899 0.082703575
0.027406029 0.036376499 0.082663268
0.028068885 0.036255699 0.081674382
0.028581504 0.036242299 0.081634089
0.029756974 0.036108099 0.080604896
0.030156929 0.036175199 0.081275925
0.030669559 0.036161799 0.081235521
0.031276066 0.036081299 0.080602407
0.031826243 0.036040999 0.080324955
0.032244984 0.036094699 0.080877364
0.032795161 0.036054399 0.080599919
0.033326562 0.036027599 0.080440983
0.033764061 0.036067799 0.080874972
0.034239132 0.036081299 0.081071712
0.034751747 0.036067799 0.081031404
0.035208046 0.036094699 0.081346668
0.035720665 0.036081299 0.081306361
-0.026936145 0.035851698 0.062994525
-0.026573751 0.0359453 0.063902691
-0.0261738 0.036012098 0.064573735
-0.025755076 0.0360655 0.065126233
-0.025355123 0.036132298 0.065797262
-0.024898838 0.036159098 0.066112623
-0.024461327 0.036199201 0.066546507
-0.024023816 0.0362393 0.066980384
-0.023567531 0.036265999 0.067295745
-0.023130018 0.036306102 0.067729637
-0.022673734 0.036332801 0.068044998
-0.022217451 0.0363595 0.068360358
-0.021742377 0.0363729 0.068557099
-0.021286093 0.036399599 0.068872452
-0.020811038 0.036412999 0.069069296
-0.020335965 0.036426399 0.069266029
-0.019860908 0.036439698 0.06946288
-0.019385837 0.036453102 0.069659621
-0.018910766 0.036466401 0.069856353
-0.018416921 0.036466401 0.069934569
-0.017941864 0.036479801 0.070131406
-0.017466793 0.036493201 0.070328154
-0.016991736 0.0365065 0.070524983
-0.016516663 0.0365199 0.070721731
-0.016041592 0.0365333 0.070918471
-0.015566535 0.036546599 0.071115308
-0.015091464 0.036559999 0.071312048
-0.014635179 0.036586698 0.071627408
-0.014160122 0.036600102 0.071824245
-0.01368505 0.036613401 0.072020978
-0.013209979 0.036626801 0.072217733
-0.012753694 0.0366535 0.072533086
-0.01225985 0.0366535 0.072611302
-0.011803566 0.0366803 0.072926663
-0.011328493 0.036693599 0.073123403
-0.010872209 0.036720399 0.073438764
-0.010397153 0.036733702 0.073635601
-0.0099408543 0.036760401 0.073950864
-0.0094657969 0.036773801 0.074147709
-0.0089907246 0.036787201 0.074344449
-0.0085344408 0.0368139 0.074659809
-0.0080593843 0.0368273 0.074856639
-0.0075843129 0.036840599 0.075053386
-0.0071280273 0.036867399 0.07536874
-0.0066529559 0.036880702 0.07556548
-0.006177899 0.036894102 0.075762331
-0.0057028276 0.036907401 0.075959064
-0.0052465438 0.036934201 0.076274432
-0.0047714715 0.0369475 0.076471165
-0.004296415 0.0369609 0.076668002
-0.0038213432 0.0369743 0.076864749
-0.0033462867 0.036987599 0.077061579
-0.0028899861 0.037014399 0.07737685
-0.0024149297 0.037027702 0.077573687
-0.0019586459 0.037054501 0.077889048
-0.0014835736 0.037067801 0.078085788
-0.0010272888 0.0370945 0.078401141
-0.00057100505 0.0371213 0.078716509
-9.5932744e-05 0.037134599 0.078913242
0.00036035106 0.037161399 0.07922861
0.00083542243 0.037174702 0.07942535
0.0012917072 0.037201501 0.079740711
0.0017479919 0.037228201 0.080056071
0.0022042757 0.0372549 0.080371432
0.0026605595 0.037281599 0.080686793
0.0030980734 0.037321702 0.08112067
0.0035731429 0.037335102 0.081317425
0.0040294304 0.037361801 0.081632778
0.0044857133 0.0373885 0.081948139
0.004941998 0.0374153 0.082263507
0.0053982818 0.037441999 0.08257886
0.0058545666 0.037468702 0.082894221
0.0063108653 0.037495501 0.083209485
0.00676715 0.0375222 0.083524853
0.0072234329 0.0375489 0.083840214
0.0076797167 0.037575599 0.084155567
0.0081360033 0.037602399 0.084470935
0.0085923029 0.037629101 0.084786192
0.0090485876 0.037655801 0.085101552
0.0094860829 0.0376959 0.085535534
0.0099423844 0.037722599 0.085850798
0.010417439 0.037735999 0.086047642
0.010873724 0.037762702 0.086363003
0.011330008 0.037789501 0.086678356
0.011786309 0.0378162 0.086993627
0.012261366 0.0378296 0.087190457
0.012736436 0.0378429 0.087387197
0.013211493 0.037856299 0.087584049
0.013705336 0.037856299 0.087662265
0.014180409 0.037869599 0.087858997
0.014674252 0.037869599 0.087937213
0.015168097 0.037869599 0.08801543
0.015661942 0.037869599 0.088093646
0.016155787 0.037869599 0.088171862
0.01664963 0.037869599 0.088250078
0.017143475 0.037869599 0.088328302
0.017637318 0.037869599 0.088406518
0.018168723 0.0378429 0.08824759
0.018718898 0.037802801 0.087970138
0.0192503 0.037776101 0.087811217
0.01980048 0.037735999 0.087533765
0.020313112 0.037722599 0.08749336
0.020844499 0.0376959 0.087334536
0.021432251 0.037629101 0.086819842
0.022001199 0.037575599 0.086423866
0.02255138 0.0375356 0.086146414
0.023082778 0.037508801 0.085987493
0.023670517 0.037441999 0.085472897
0.02423948 0.0373885 0.085076824
0.024789656 0.037348501 0.084799379
0.025339831 0.037308399 0.084521927
0.025890026 0.0372683 0.084244385
0.026458973 0.037214801 0.083848409
0.027009163 0.037174702 0.08357086
0.027540553 0.037147999 0.083412036
0.028090745 0.0371079 0.08313448
0.028640924 0.037067801 0.082857043
0.029172324 0.037041102 0.082698114
0.029741274 0.036987599 0.082302138
0.030272678 0.0369609 0.08214321
0.030747749 0.0369743 0.082339957
0.031297926 0.036934201 0.082062505
0.031829331 0.036907401 0.081903569
0.032323178 0.036907401 0.081981793
0.032835789 0.036894102 0.081941493
0.033348422 0.036880702 0.081901081
0.033842266 0.036880702 0.081979297
0.034317326 0.036894102 0.082176141
0.034811165 0.036894102 0.082254358
0.035305012 0.036894102 0.082332574
0.035780087 0.036907401 0.082529306
0.036273926 0.036907401 0.08260753
0.036730211 0.036934201 0.082922898
0.037205283 0.0369475 0.083119631
0.037680343 0.0369609 0.083316468
0.038192969 0.0369475 0.083276063
0.038705587 0.036934201 0.083235763
0.039180659 0.0369475 0.083432496
0.039674506 0.0369475 0.083510719
0.04018712 0.036934201 0.083470419
0.040699735 0.036920801 0.083430111
0.04117481 0.036934201 0.083626851
0.041724984 0.036894102 0.083349399
0.042275175 0.036853999 0.08307185
0.042806566 0.0368273 0.082913011
0.043431863 0.036733702 0.082161285
0.043963268 0.036706999 0.082002364
0.045138739 0.036573399 0.080973171
0.04555748 0.036626801 0.081525579
0.046107654 0.036586698 0.081248127
0.046620268 0.036573399 0.081207827
-0.037523203 0.0344272 0.041942358
-0.037049212 0.034441199 0.042145912
-0.036654625 0.034511201 0.042850815
-0.036199421 0.0345385 0.043172996
-0.035724349 0.034551799 0.043369737
-0.035286836 0.034591701 0.043803617
-0.02774214 0.0348446 0.047307912
-0.028063374 0.036122199 0.058924787
-0.027569529 0.036122199 0.059003003
-0.027620282 0.036508199 0.062519655
-0.027201543 0.0365614 0.063072063
-0.026839148 0.036654599 0.063980229
-0.026439212 0.036721099 0.064651355
-0.026020471 0.0367743 0.065203771
-0.025601748 0.036827601 0.065756276
-0.025164235 0.036867499 0.066190153
-0.024726741 0.036907401 0.066624142
-0.024270456 0.036934 0.066939496
-0.023832943 0.036974002 0.06737338
-0.023376659 0.0370006 0.067688748
-0.022920374 0.037027199 0.068004109
-0.022464091 0.037053801 0.06831947
-0.021989018 0.0370671 0.06851621
-0.021532735 0.037093699 0.06883157
-0.021057662 0.037106998 0.06902831
-0.020582607 0.037120301 0.069225147
-0.020107534 0.037133701 0.069421887
-0.019632477 0.037147 0.069618732
-0.019157406 0.0371603 0.069815464
-0.018663561 0.0371603 0.069893681
-0.01818849 0.037173599 0.070090421
-0.017713433 0.037186898 0.070287265
-0.01723836 0.037200201 0.070483997
-0.016763305 0.037213501 0.070680842
-0.016288232 0.0372268 0.070877589
-0.015813176 0.037240099 0.071074419
-0.015338104 0.037253398 0.071271159
-0.014881819 0.037280001 0.071586519
-0.014406747 0.037293401 0.07178326
-0.013931692 0.0373067 0.071980096
-0.013456619 0.037319999 0.072176836
-0.012981564 0.037333298 0.072373688
-0.012506491 0.037346601 0.072570421
-0.012031419 0.037359901 0.072767161
-0.011556362 0.0373732 0.07296399
-0.011100078 0.037399799 0.073279358
-0.010625006 0.037413102 0.073476091
-0.010168722 0.037439801 0.073791459
-0.0096936496 0.0374531 0.073988199
-0.0092185922 0.037466399 0.074185036
-0.0087623084 0.037493002 0.074500397
-0.008287237 0.037506301 0.074697137
-0.0078121801 0.0375196 0.074893974
-0.0073371092 0.0375329 0.075090714
-0.0068808249 0.037559502 0.075406075
-0.0064057526 0.037572801 0.075602822
-0.0059494674 0.0375995 0.075918175
-0.0054744119 0.0376128 0.07611502
-0.0049993391 0.037626099 0.07631176
-0.0045242673 0.037639402 0.076508492
-0.0040679825 0.037666 0.07682386
-0.0035929261 0.0376793 0.07702069
-0.0031178556 0.037692599 0.077217445
-0.0026427982 0.037705898 0.077414274
-0.0021865144 0.037732501 0.077729642
-0.0017114421 0.0377458 0.077926375
-0.0012551583 0.037772499 0.078241743
-0.00079887267 0.037799101 0.078557096
-0.00032380037 0.037812401 0.078753836
0.00013248343 0.037838999 0.079069197
0.00058876723 0.037865601 0.079384565
0.0010638386 0.037878901 0.079581305
0.0015201233 0.037905499 0.079896666
0.0019764071 0.037932198 0.080212019
0.0024326909 0.037958801 0.08052738
0.0028889747 0.037985399 0.080842748
0.0033264896 0.038025301 0.081276625
0.0038015442 0.0380386 0.08147347
0.0042578289 0.038065199 0.08178883
0.004695341 0.038105201 0.082222708
0.0051516397 0.0381318 0.082537979
0.0056079254 0.038158402 0.082853332
0.0060642101 0.038185 0.083168693
0.0065204948 0.038211599 0.083484061
0.0069767786 0.038238298 0.083799422
0.0074330634 0.0382649 0.084114783
0.0078893462 0.038291499 0.084430143
0.0083456319 0.038318101 0.084745504
0.0088019148 0.0383447 0.085060865
0.0092582153 0.038371298 0.085376121
0.0097145 0.038398001 0.085691482
0.010170783 0.0384246 0.086006857
0.010627069 0.038451198 0.086322211
0.011083351 0.038477801 0.086637571
0.011558425 0.0384911 0.086834311
0.01199592 0.038531002 0.087268293
0.012489765 0.038531002 0.087346509
0.012964835 0.038544402 0.087543249
0.013439909 0.038557701 0.087739997
0.013914966 0.038571 0.087936834
0.014408811 0.038571 0.08801505
0.014902654 0.038571 0.088093266
0.015396497 0.038571 0.088171482
0.01587157 0.038584299 0.088368215
0.016365413 0.038584299 0.088446431
0.016840469 0.038597599 0.088643283
0.017334312 0.038597599 0.088721499
0.017846949 0.038584299 0.088681087
0.018378353 0.038557701 0.088522166
0.018909737 0.038531002 0.088363335
0.019459931 0.0384911 0.088085786
0.019991338 0.038464502 0.087926865
0.020522725 0.038437899 0.087768033
0.021035355 0.0384246 0.087727636
0.021585532 0.038384601 0.087450184
0.022173271 0.038318101 0.086935587
0.022704668 0.038291499 0.086776659
0.023254849 0.038251601 0.086499207
0.023842599 0.038185 0.085984513
0.024392778 0.038145099 0.085707068
0.024942953 0.038105201 0.085429616
0.025493126 0.038065199 0.085152172
0.026043322 0.038025301 0.084874623
0.026612271 0.0379721 0.084478647
0.027143689 0.037945502 0.084319621
0.027693864 0.037905499 0.084042177
0.028225269 0.037878901 0.083883256
0.028775442 0.037838999 0.083605804
0.029306849 0.037812401 0.083446875
0.029819468 0.037799101 0.083406568
0.030350871 0.037772499 0.083247647
0.030844714 0.037772499 0.083325863
0.031357329 0.0377592 0.083285555
0.031888735 0.037732501 0.083126634
0.03242014 0.037705898 0.082967699
0.032895211 0.037719201 0.083164439
0.033426616 0.037692599 0.083005518
0.033920459 0.037692599 0.083083734
0.034414303 0.037692599 0.08316195
0.034889359 0.037705898 0.08335878
0.035383206 0.037705898 0.083436996
0.035858277 0.037719201 0.083633743
0.03633333 0.037732501 0.083830588
0.036827173 0.037732501 0.083908804
0.037302248 0.0377458 0.084105536
0.037796095 0.0377458 0.084183753
0.038271148 0.0377592 0.084380597
0.038727451 0.037785798 0.084695853
0.039240066 0.037772499 0.084655561
0.039733909 0.037772499 0.084733777
0.040246524 0.0377592 0.084693469
0.040740371 0.0377592 0.084771685
0.041253 0.0377458 0.084731273
0.041765615 0.037732501 0.084690973
0.04224069 0.0377458 0.084887706
0.042809654 0.037692599 0.08449164
0.043322273 0.0376793 0.084451333
0.043872461 0.037639402 0.084173784
0.044403851 0.0376128 0.08401496
0.044991586 0.037546199 0.08350037
0.045654442 0.037426401 0.082511485
0.046110742 0.0374531 0.082826741
0.046660919 0.037413102 0.082549289
0.047248658 0.037346601 0.082034707
0.047873951 0.037253398 0.081282966
0.048518021 0.037147 0.080412708
-0.041442629 0.034937799 0.039520711
-0.04102819 0.034993399 0.04010028
-0.040593889 0.0350352 0.040554412
-0.04017945 0.0350908 0.041133977
-0.039725307 0.035118699 0.041462868
-0.039291017 0.0351604 0.041917101
-0.038836878 0.035188299 0.042245992
-0.038382735 0.035216101 0.04257489
-0.037908744 0.03523 0.04277844
-0.037471246 0.035269801 0.043212425
-0.036996175 0.035282999 0.043409161
-0.036521103 0.035296299 0.043605905
-0.036083605 0.035335999 0.044039886
-0.035589762 0.035335999 0.044118103
-0.035133477 0.035362501 0.044433467
-0.034677193 0.035388999 0.044748824
-0.034127001 0.035349298 0.044471279
-0.033651944 0.035362501 0.044668116
-0.033176873 0.0353758 0.044864856
-0.032720592 0.035402302 0.04518022
-0.032301866 0.035455301 0.045732722
-0.031808019 0.035455301 0.045810938
-0.031332947 0.035468601 0.046007678
-0.030839104 0.035468601 0.046085894
-0.030364048 0.035481799 0.046282735
-0.029888976 0.035495099 0.046479478
-0.029432692 0.0355216 0.046794835
-0.029013969 0.0355746 0.047347341
-0.028538894 0.035587799 0.047544077
-0.028082609 0.035614301 0.047859441
-0.027588766 0.035614301 0.047937658
-0.027019802 0.035561301 0.047541589
-0.028328773 0.036833599 0.059002317
-0.027872488 0.036860101 0.059317686
-0.027322296 0.036820401 0.059040137
-0.027448166 0.037257701 0.063031077
-0.027067002 0.037337199 0.063820727
-0.026667049 0.037403502 0.064491756
-0.026248327 0.037456501 0.065044262
-0.025810814 0.037496299 0.065478146
-0.025392089 0.037549298 0.066030651
-0.024954591 0.037588999 0.066464633
-0.024498293 0.0376155 0.066779897
-0.024042007 0.037642099 0.06709525
-0.023585724 0.037668601 0.067410618
-0.023148227 0.037708301 0.067844599
-0.022691928 0.037734799 0.068159863
-0.022216871 0.037748098 0.0683567
-0.021760587 0.0377746 0.068672068
-0.021304302 0.037801102 0.068987422
-0.020829231 0.037814301 0.069184162
-0.020354174 0.0378276 0.069380999
-0.019879103 0.037840798 0.069577746
-0.019404031 0.037854102 0.069774479
-0.018910186 0.037854102 0.069852695
-0.01843513 0.037867401 0.070049539
-0.017941285 0.037867401 0.070127755
-0.017466228 0.037880599 0.070324592
-0.016991157 0.037893899 0.070521332
-0.016534872 0.037920401 0.070836693
-0.016059801 0.037933599 0.071033433
-0.015584745 0.037946898 0.071230277
-0.015109673 0.037960101 0.07142701
-0.014634617 0.0379734 0.071623854
-0.014159544 0.037986599 0.071820594
-0.013684472 0.037999898 0.072017327
-0.013209415 0.038013101 0.072214171
-0.012734344 0.0380264 0.072410919
-0.012259287 0.038039599 0.072607748
-0.011803004 0.0380661 0.072923109
-0.011327931 0.0380794 0.073119849
-0.010852873 0.038092699 0.073316686
-0.01039659 0.038119201 0.073632047
-0.0099215182 0.038132399 0.073828787
-0.0094464459 0.038145699 0.074025527
-0.0089901621 0.0381722 0.074340895
-0.008496318 0.0381722 0.074419111
-0.0080400333 0.038198698 0.074734472
-0.0075649768 0.038211901 0.074931301
-0.007108693 0.038238399 0.075246669
-0.0066336207 0.038251702 0.075443402
-0.0061585647 0.0382649 0.075640254
-0.0057022641 0.038291499 0.07595551
-0.0052272077 0.038304701 0.076152347
-0.0047521363 0.038318001 0.076349095
-0.0042958516 0.038344499 0.076664448
-0.0038207956 0.038357701 0.076861285
-0.0033457233 0.038371 0.077058025
-0.0028894395 0.038397498 0.077373393
-0.0024143821 0.038410701 0.07757023
-0.0019393098 0.038424 0.07776697
-0.001483026 0.038450502 0.078082331
-0.0010079537 0.038463701 0.078279071
-0.00055166986 0.038490199 0.078594431
-9.5385127e-05 0.038516801 0.078909785
0.00037967041 0.03853 0.079106636
0.00083597004 0.038556501 0.079421893
0.0012922548 0.038582999 0.079737253
0.0017485386 0.038609501 0.080052614
0.0022048242 0.038635999 0.080367975
0.0026611071 0.038662501 0.080683336
0.0030986052 0.038702302 0.081117317
0.003554903 0.0387288 0.081432581
0.0040111896 0.038755301 0.081747942
0.0044674724 0.038781799 0.08206331
0.0049237581 0.038808301 0.082378663
0.0053612692 0.038848098 0.082812548
0.0058363257 0.038861301 0.083009385
0.0062738368 0.038901102 0.083443269
0.0067301225 0.0389276 0.083758637
0.0071864054 0.038954102 0.084073998
0.0076426882 0.038980599 0.084389359
0.0080989758 0.039007101 0.084704712
0.0085552586 0.039033599 0.08502008
0.0090115434 0.039060101 0.085335441
0.0094678272 0.039086599 0.085650794
0.0099241277 0.039113101 0.085966073
0.010380412 0.039139599 0.086281426
0.010836696 0.0391661 0.086596787
0.011311752 0.0391794 0.086793624
0.011768053 0.039205901 0.087108888
0.012224321 0.039232399 0.087424345
0.012699393 0.039245699 0.087621085
0.01317445 0.039258901 0.087817922
0.01364952 0.0392722 0.08801467
0.014124593 0.039285399 0.08821141
0.014637209 0.0392722 0.088171102
0.015131054 0.0392722 0.088249318
0.015606126 0.039285399 0.088446058
0.016099971 0.039285399 0.088524275
0.016575027 0.039298698 0.088721104
0.017068872 0.039298698 0.088799328
0.017562715 0.039298698 0.088877544
0.018075347 0.039285399 0.088837147
0.018587962 0.0392722 0.088796839
0.019119367 0.039245699 0.088637911
0.019650772 0.039219201 0.088478982
0.020182176 0.039192699 0.088320062
0.020713579 0.0391661 0.088161133
0.021226194 0.039152902 0.088120826
0.021757601 0.0391264 0.087961897
0.022326566 0.0390734 0.087565832
0.022857968 0.039046898 0.087406896
0.023445705 0.038980599 0.086892307
0.024014669 0.0389276 0.086496234
0.024546072 0.038901102 0.086337313
0.025096245 0.038861301 0.086059861
0.025646441 0.0388216 0.085782319
0.026196616 0.038781799 0.085504867
0.026746791 0.038742099 0.085227415
0.0272782 0.0387155 0.085068479
0.027828373 0.0386758 0.084791034
0.02835978 0.038649298 0.084632114
0.02889118 0.0386228 0.084473185
0.029403813 0.038609501 0.084432781
0.029935217 0.038582999 0.084273852
0.030447833 0.038569801 0.084233552
0.030960467 0.038556501 0.08419314
0.03145431 0.038556501 0.084271356
0.031948157 0.038556501 0.08434958
0.03247954 0.03853 0.084190756
0.033010948 0.038503502 0.08403182
0.03348602 0.038516801 0.08422856
0.033998638 0.038503502 0.084188253
0.034511264 0.038490199 0.084147856
0.034986325 0.038503502 0.084344685
0.035442609 0.03853 0.084660053
0.035917677 0.038543299 0.084856793
0.036392752 0.038556501 0.085053533
0.036867809 0.038569801 0.085250378
0.037342884 0.038582999 0.08544711
0.037799161 0.038609501 0.085762471
0.038293008 0.038609501 0.085840687
0.038786851 0.038609501 0.085918903
0.039280698 0.038609501 0.085997127
0.039774541 0.038609501 0.086075343
0.040268384 0.038609501 0.086153559
0.040724672 0.038635999 0.08646892
0.041237283 0.0386228 0.086428612
0.04173113 0.0386228 0.086506829
0.042224973 0.0386228 0.086585045
0.042775169 0.038582999 0.086307503
0.043306571 0.038556501 0.086148575
0.043856747 0.038516801 0.085871123
0.044350594 0.038516801 0.085949339
0.044938326 0.038450502 0.08543475
0.045544852 0.038371 0.084801532
0.046001133 0.038397498 0.085116893
0.046588872 0.038331199 0.084602304
0.04713906 0.038291499 0.084324755
0.047689237 0.038251702 0.084047303
0.048314538 0.038158901 0.083295569
0.049014952 0.038013101 0.082069539
0.049414903 0.0380794 0.082740568
-0.044215601 0.035339799 0.036253095
-0.043880556 0.0354505 0.037333913
-0.043446265 0.035491999 0.037788142
-0.043051664 0.0355612 0.038492952
-0.042637222 0.035616599 0.039072517
-0.042222772 0.035671901 0.039651986
-0.041768629 0.035699598 0.039980877
-0.041374043 0.035768799 0.040685788
-0.040919889 0.0357964 0.041014578
-0.040485598 0.0358379 0.041468807
-0.040031455 0.035865601 0.041797698
-0.039597146 0.035907101 0.042251833
-0.039123159 0.035921 0.042455386
-0.03866794 0.035948001 0.042777464
-0.038211666 0.035974398 0.043092925
-0.03775537 0.036000799 0.043408189
-0.037280314 0.036014002 0.043605026
-0.036824029 0.036040399 0.04392039
-0.036348954 0.036053602 0.044117127
-0.035892673 0.036079999 0.044432487
-0.035417616 0.036093201 0.044629328
-0.034961332 0.036119599 0.044944689
-0.034505047 0.036146 0.045260049
-0.034029976 0.036159199 0.045456789
-0.033536129 0.036159199 0.045535006
-0.033079848 0.0361856 0.045850366
-0.032604776 0.036198799 0.046047106
-0.032148488 0.036225099 0.046362467
-0.031654648 0.036225099 0.046440687
-0.031160802 0.036225099 0.046518903
-0.030685745 0.036238302 0.04671574
-0.030210674 0.0362515 0.04691248
-0.029754389 0.036277901 0.047227841
-0.029279333 0.0362911 0.047424678
-0.028823048 0.036317501 0.047740042
-0.028329205 0.036317501 0.047818258
-0.027854133 0.0363307 0.048014998
-0.027322728 0.036304299 0.047856074
-0.028519049 0.0374921 0.05860557
-0.028119095 0.037558101 0.059276596
-0.02760648 0.037544899 0.059236292
-0.027657229 0.037927601 0.062752947
-0.027276067 0.038006801 0.063542597
-0.026876114 0.038072798 0.064213626
-0.026457392 0.038125601 0.064766124
-0.026019894 0.038165201 0.06520012
-0.025601152 0.038217999 0.065752521
-0.025163658 0.038257599 0.06618651
-0.024707373 0.038284 0.066501863
-0.02426986 0.0383236 0.066935748
-0.023813577 0.038350001 0.067251109
-0.023376066 0.038389601 0.067684993
-0.02290101 0.0384028 0.06788183
-0.022444725 0.0384291 0.068197198
-0.02198844 0.038455501 0.068512559
-0.021513369 0.0384687 0.068709299
-0.021038312 0.038481899 0.068906128
-0.020563239 0.038495101 0.069102868
-0.020106955 0.038521498 0.069418229
-0.0196319 0.038534701 0.069615081
-0.019156829 0.0385479 0.069811814
-0.018681753 0.038561098 0.070008554
-0.018206699 0.038574301 0.07020539
-0.017712854 0.038574301 0.070283607
-0.017237797 0.038587499 0.070480444
-0.016762726 0.038600702 0.070677184
-0.016287653 0.038613901 0.070873931
-0.015812598 0.038627099 0.071070768
-0.015356313 0.0386535 0.071386121
-0.014881241 0.038666699 0.071582869
-0.014406185 0.038679902 0.071779706
-0.013931112 0.0386931 0.071976438
-0.013456057 0.038706299 0.072173283
-0.012980985 0.038719501 0.07237003
-0.012505927 0.0387327 0.072566859
-0.012030856 0.038745899 0.072763607
-0.011555799 0.038759101 0.072960436
-0.011080727 0.0387723 0.073157176
-0.010624443 0.038798701 0.073472537
-0.010149386 0.0388119 0.073669374
-0.0096743144 0.038825098 0.073866129
-0.0092180297 0.0388515 0.074181482
-0.0087429574 0.038864698 0.074378222
-0.0082679018 0.038877901 0.074575059
-0.0077928291 0.038891099 0.074771799
-0.0073365457 0.038917501 0.07508716
-0.0068802605 0.038943902 0.075402513
-0.006405205 0.0389571 0.075599365
-0.0059301322 0.038970299 0.075796105
-0.0054738484 0.0389966 0.076111466
-0.0049987915 0.039009798 0.076308295
-0.0045237197 0.039023001 0.076505035
-0.0040486474 0.039036199 0.076701783
-0.0035923794 0.039062601 0.07701724
-0.003117308 0.039075799 0.077213988
-0.0026422348 0.039089002 0.07741072
-0.002185951 0.039115399 0.077726088
-0.0017108945 0.039128602 0.077922918
-0.0012546107 0.039154999 0.078238279
-0.00077953748 0.039168201 0.078435019
-0.00032325368 0.039194599 0.078750379
0.00013303105 0.039221 0.07906574
0.00058931485 0.039247401 0.079381108
0.0010643872 0.0392606 0.079577841
0.001520671 0.039287001 0.079893209
0.0019769538 0.039313398 0.08020857
0.002414451 0.039352998 0.080642551
0.0028707357 0.039379399 0.080957904
0.0033270214 0.0394058 0.081273273
0.0037833042 0.039432202 0.081588641
0.0042396048 0.039458599 0.081903897
0.004677101 0.039498199 0.082337879
0.0051333839 0.039524499 0.082653239
0.0055896686 0.0395509 0.0829686
0.0060459543 0.039577302 0.083283953
0.006502239 0.039603699 0.083599322
0.0069585219 0.0396301 0.08391469
0.0073960358 0.0396697 0.084348567
0.0078523187 0.039696101 0.084663928
0.0083086025 0.039722499 0.084979288
0.0087836739 0.039735701 0.085176028
0.009221172 0.039775301 0.08561001
0.0096774567 0.039801698 0.08592537
0.01013374 0.039828099 0.086240731
0.010608812 0.039841302 0.086437479
0.011065096 0.039867699 0.086752832
0.01152138 0.0398941 0.0870682
0.011977663 0.039920501 0.087383561
0.01243395 0.039946899 0.087698914
0.01290902 0.039960101 0.087895654
0.013384077 0.0399733 0.088092498
0.01385915 0.039986499 0.088289239
0.014352995 0.039986499 0.088367455
0.014846838 0.039986499 0.088445671
0.015340681 0.039986499 0.088523887
0.015834525 0.039986499 0.088602103
0.016309582 0.039999701 0.088798948
0.016803425 0.039999701 0.088877171
0.017297268 0.039999701 0.088955387
0.017791115 0.039999701 0.089033604
0.018303748 0.039986499 0.088993192
0.01883515 0.039960101 0.088834263
0.019347768 0.039946899 0.088793956
0.019860402 0.0399337 0.088753559
0.020373017 0.039920501 0.088713259
0.02090442 0.0398941 0.08855433
0.021417052 0.039880902 0.088513918
0.021948442 0.0398545 0.088355094
0.02249863 0.039814901 0.088077545
0.023030035 0.039788499 0.087918617
0.023598999 0.039735701 0.087522544
0.024167951 0.039682899 0.087126575
0.024699353 0.039656501 0.086967647
0.025268316 0.039603699 0.086571582
0.02581851 0.039564099 0.086294033
0.026349913 0.039537702 0.086135104
0.02690009 0.039498199 0.085857652
0.027450278 0.039458599 0.085580103
0.027981671 0.039432202 0.085421279
0.028494298 0.039418999 0.085380875
0.029025704 0.039392602 0.085221954
0.029538324 0.039379399 0.085181639
0.030050956 0.039366201 0.085141234
0.030563571 0.039352998 0.085100934
0.0310762 0.039339799 0.085060522
0.031588819 0.039326601 0.085020229
0.032082662 0.039326601 0.085098445
0.032576505 0.039326601 0.085176662
0.033089139 0.039313398 0.085136257
0.033601757 0.0393002 0.085095942
0.0340956 0.0393002 0.085174158
0.034570668 0.039313398 0.085370906
0.035064515 0.039313398 0.085449122
0.035520799 0.039339799 0.085764483
0.035995856 0.039352998 0.085961327
0.036452137 0.039379399 0.08627668
0.036908425 0.0394058 0.086592041
0.0373835 0.039418999 0.086788781
0.037839778 0.0394454 0.087104142
0.038314853 0.039458599 0.087300882
0.038789909 0.039471801 0.087497726
0.039283752 0.039471801 0.087575942
0.039777596 0.039471801 0.087654158
0.040271442 0.039471801 0.087732375
0.040765285 0.039471801 0.087810591
0.041240357 0.039485 0.088007331
0.041771762 0.039458599 0.087848403
0.042284377 0.0394454 0.087808102
0.042759452 0.039458599 0.088004842
0.043253291 0.039458599 0.088083059
0.043803472 0.039418999 0.087805606
0.044297315 0.039418999 0.087883823
0.044847488 0.039379399 0.08760637
0.045397684 0.039339799 0.087328821
0.045929085 0.039313398 0.087169901
0.046498053 0.0392606 0.086773828
0.047010668 0.039247401 0.086733527
0.047542073 0.039221 0.086574599
0.048148595 0.0391418 0.085941382
0.048698775 0.0391022 0.085663937
0.049211401 0.039089002 0.085623525
0.049949378 0.038917501 0.084160358
0.050330546 0.0389966 0.084950015
0.050824389 0.0389966 0.085028231
-0.044482075 0.036061801 0.036337446
-0.044166882 0.0361856 0.037543602
-0.043732576 0.036226898 0.037997734
-0.043318123 0.036281899 0.038577199
-0.042903669 0.036336999 0.039156672
-0.042489234 0.036392 0.039736237
-0.042054929 0.036433298 0.040190373
-0.041640472 0.036488298 0.040769838
-0.041186333 0.036515798 0.041098736
-0.040752027 0.036557101 0.041552864
-0.040297888 0.036584601 0.041881755
-0.039843742 0.036612101 0.04221065
-0.039389588 0.036639601 0.042539444
-0.038933303 0.036665902 0.042854801
-0.038477018 0.036692198 0.043170169
-0.038020737 0.036718499 0.043485526
-0.037526891 0.036718499 0.043563742
-0.037070606 0.036744699 0.043879103
-0.036595535 0.036757901 0.044075847
-0.03613925 0.036784202 0.044391207
-0.035664193 0.0367973 0.044588044
-0.035207909 0.036823601 0.044903405
-0.034751624 0.036849901 0.045218769
-0.034295343 0.036876202 0.045534126
-0.033820268 0.0368893 0.045730866
-0.033326425 0.0368893 0.045809086
-0.032851368 0.036902402 0.046005927
-0.032395083 0.036928698 0.046321284
-0.031920012 0.036941901 0.046518024
-0.031426169 0.036941901 0.046596244
-0.030951113 0.036954999 0.046793081
-0.030476039 0.036968201 0.046989821
-0.030000985 0.0369813 0.047186658
-0.02952591 0.036994401 0.047383402
-0.029050855 0.0370076 0.047580238
-0.02857578 0.037020698 0.047776975
-0.028100725 0.037033901 0.047973815
-0.027588094 0.037020698 0.047933411
-0.028671749 0.038124699 0.057971574
-0.028346933 0.038242899 0.059116993
-0.027890649 0.038269199 0.059432358
-0.02784751 0.038584601 0.062356196
-0.027466346 0.038663499 0.063145846
-0.02706641 0.038729198 0.063816972
-0.026666455 0.038794901 0.064488001
-0.026228961 0.0388343 0.06492199
-0.025791448 0.038873799 0.065355875
-0.025353935 0.038913202 0.065789752
-0.024916438 0.0389526 0.066223741
-0.024478927 0.038992099 0.066657625
-0.024041429 0.039031502 0.067091599
-0.023585144 0.039057799 0.06740696
-0.02312886 0.039083999 0.067722328
-0.022672577 0.039110299 0.068037689
-0.022216292 0.0391366 0.068353042
-0.021741223 0.039149798 0.068549789
-0.021284936 0.039175998 0.068865143
-0.020809881 0.039189201 0.069061987
-0.020334806 0.039202299 0.069258727
-0.01985975 0.039215501 0.069455564
-0.01938468 0.0392286 0.069652312
-0.018909622 0.039241701 0.069849141
-0.018453339 0.039267998 0.070164509
-0.017959494 0.039267998 0.070242725
-0.017484423 0.039281201 0.070439458
-0.017009366 0.039294299 0.070636295
-0.016534295 0.039307501 0.07083305
-0.016059238 0.039320599 0.071029879
-0.015584165 0.039333701 0.071226619
-0.015109094 0.0393469 0.071423359
-0.014634037 0.039360002 0.071620196
-0.014177753 0.039386299 0.071935557
-0.013702696 0.039399501 0.072132394
-0.013208852 0.039399501 0.072210617
-0.01273378 0.039412599 0.072407357
-0.012277496 0.0394389 0.072722718
-0.011802425 0.039452001 0.072919458
-0.011327367 0.0394652 0.073116295
-0.010852296 0.039478298 0.073313035
-0.01039601 0.039504599 0.073628388
-0.0099209547 0.039517701 0.073825233
-0.0094458824 0.039530899 0.074021973
-0.0089708269 0.039544001 0.074218817
-0.0085145421 0.039570302 0.07453417
-0.0080394708 0.0395834 0.074730918
-0.0075644134 0.039596599 0.074927747
-0.0071081296 0.039622899 0.075243115
-0.0066330573 0.039636001 0.075439848
-0.006176773 0.039662302 0.075755224
-0.0057017165 0.0396754 0.075952053
-0.0052266442 0.039688598 0.076148793
-0.0047703604 0.039714899 0.076464154
-0.004295304 0.039728001 0.076660991
-0.0038202321 0.039741199 0.076857731
-0.0033639474 0.039767399 0.077173091
-0.0028888918 0.039780602 0.077369936
-0.0024138186 0.0397937 0.077566676
-0.0019575348 0.039820001 0.077882037
-0.0015012501 0.039846301 0.07819739
-0.0010261778 0.039859399 0.07839413
-0.00056991074 0.0398857 0.078709595
-0.00011362601 0.039912 0.079024948
0.00036144629 0.039925098 0.079221696
0.00081773009 0.039951399 0.079537056
0.0012928033 0.039964601 0.079733796
0.0017302996 0.040004 0.080167778
0.0021865834 0.040030301 0.080483139
0.0026428672 0.040056601 0.080798499
0.0030991528 0.040082902 0.08111386
0.0035554348 0.040109102 0.081429228
0.0040117214 0.040135399 0.081744589
0.0044492325 0.040174801 0.082178473
0.0049055181 0.040201101 0.082493827
0.005361801 0.040227398 0.082809187
0.0058180857 0.040253699 0.083124556
0.0062743695 0.040279999 0.083439909
0.0067118667 0.040319402 0.083873898
0.0071681496 0.040345699 0.084189259
0.0076244324 0.040371999 0.084504619
0.00808072 0.0403983 0.08481998
0.0085370028 0.0404245 0.085135341
0.0089932876 0.0404508 0.085450701
0.0094307987 0.040490299 0.085884586
0.0098870844 0.040516499 0.086199947
0.010343367 0.0405428 0.086515307
0.010818424 0.040555999 0.086712152
0.011274723 0.040582299 0.087027408
0.011731011 0.040608499 0.087342769
0.012187294 0.0406348 0.08765813
0.012662348 0.040647998 0.087854967
0.013137422 0.0406611 0.088051707
0.013612477 0.040674198 0.088248551
0.014087549 0.040687401 0.088445291
0.014581393 0.040687401 0.088523507
0.015075237 0.040687401 0.088601723
0.015550295 0.040700499 0.08879856
0.016062927 0.040687401 0.088758156
0.01655677 0.040687401 0.088836372
0.017031828 0.040700499 0.089033216
0.01754446 0.040687401 0.088992812
0.018038303 0.040687401 0.089071028
0.018532146 0.040687401 0.089149244
0.019044762 0.040674198 0.089108936
0.019557398 0.0406611 0.089068532
0.020070013 0.040647998 0.089028224
0.020582642 0.0406348 0.088987827
0.021095257 0.040621702 0.08894752
0.021626666 0.040595401 0.088788591
0.022158071 0.040569101 0.08862967
0.022689471 0.0405428 0.088470735
0.023220878 0.040516499 0.088311806
0.02377107 0.040477101 0.088034257
0.024358803 0.040411402 0.087519675
0.024890207 0.040385101 0.087360747
0.025440386 0.040345699 0.087083295
0.025990576 0.0403063 0.086805746
0.026540753 0.040266801 0.086528294
0.027053386 0.040253699 0.086487897
0.027603561 0.0402143 0.086210445
0.028134968 0.040188 0.086051524
0.028647594 0.040174801 0.086011119
0.029197775 0.040135399 0.085733667
0.029710405 0.0401223 0.085693263
0.030204248 0.0401223 0.085771479
0.030716866 0.040109102 0.085731171
0.0312295 0.040096 0.085690759
0.031723347 0.040096 0.085768983
0.032235958 0.040082902 0.085728683
0.032729805 0.040082902 0.085806899
0.033242434 0.040069699 0.085766494
0.033736281 0.040069699 0.08584471
0.03423012 0.040069699 0.085922927
0.034705181 0.040082902 0.086119764
0.035180256 0.040096 0.086316496
0.035636533 0.0401223 0.086631872
0.036092822 0.040148601 0.086947232
0.036549103 0.040174801 0.087262593
0.037024163 0.040188 0.08745943
0.037461668 0.040227398 0.087893307
0.037917957 0.040253699 0.088208675
0.038393013 0.040266801 0.088405505
0.038868088 0.040279999 0.088602252
0.039324369 0.0403063 0.088917613
0.039818212 0.0403063 0.088995829
0.040293273 0.040319402 0.089192666
0.04076834 0.0403326 0.089389406
0.041299745 0.0403063 0.089230478
0.041793589 0.0403063 0.089308694
0.042306207 0.040293101 0.089268401
0.042837612 0.040266801 0.089109465
0.043331455 0.040266801 0.089187682
0.043844089 0.040253699 0.089147285
0.044356704 0.040240601 0.08910697
0.044888109 0.0402143 0.088948049
0.04541951 0.040188 0.08878912
0.045969706 0.040148601 0.088511579
0.046519876 0.040109102 0.088234127
0.047070071 0.040069699 0.087956578
0.047620252 0.040030301 0.087679125
0.048114091 0.040030301 0.087757342
0.048683055 0.0399777 0.087361276
0.049195688 0.039964601 0.087320864
0.049764633 0.039912 0.086924896
0.050371155 0.039833199 0.086291686
0.050846234 0.039846301 0.086488418
0.051415198 0.0397937 0.086092353
-0.045021761 0.036291301 0.031754296
-0.044669181 0.0367289 0.035920642
-0.044413492 0.0368931 0.03750252
-0.043979205 0.0369341 0.037956748
-0.043564729 0.036988799 0.038536116
-0.043170132 0.037057199 0.039240927
-0.042735822 0.037098199 0.039695054
-0.042321373 0.037152901 0.040274523
-0.041887067 0.037193999 0.040728655
-0.041432925 0.037221301 0.041057553
-0.040998623 0.037262298 0.041511681
-0.040544465 0.037289701 0.041840471
-0.040090322 0.037317 0.04216937
-0.039616309 0.037330698 0.042372823
-0.039161094 0.037357502 0.0426949
-0.038704827 0.037383702 0.043010361
-0.038248539 0.037409801 0.043325722
-0.037773468 0.037422899 0.043522466
-0.037298411 0.037436001 0.043719303
-0.03682334 0.037449099 0.043916039
-0.036367055 0.037475299 0.044231404
-0.035891999 0.037488401 0.044428241
-0.035435718 0.0375145 0.044743601
-0.034960642 0.037527598 0.044940345
-0.034504358 0.037553798 0.045255702
-0.034048073 0.037579998 0.045571066
-0.033573017 0.0375931 0.045767903
-0.033079173 0.0375931 0.045846123
-0.032622889 0.0376192 0.04616148
-0.032166604 0.0376454 0.046476841
-0.031672761 0.0376454 0.046555061
-0.031197689 0.037658501 0.046751801
-0.030703846 0.037658501 0.046830017
-0.03022879 0.0376716 0.047026854
-0.029772503 0.037697699 0.047342218
-0.02927866 0.037697699 0.047420435
-0.028803587 0.037710801 0.047617171
-0.028328532 0.037723899 0.047814012
-0.027834687 0.037723899 0.047892231
-0.027284496 0.037684701 0.047614682
-0.028499637 0.038875598 0.058482997
-0.028137259 0.0389672 0.059391271
-0.027624626 0.038954102 0.059350871
-0.02763785 0.039307401 0.062630579
-0.027237898 0.039372899 0.063301601
-0.026856748 0.039451402 0.064091347
-0.026438024 0.039503701 0.06464386
-0.026000511 0.039542999 0.065077744
-0.025563015 0.0395822 0.065511726
-0.02514429 0.0396346 0.066064231
-0.024688007 0.0396608 0.066379584
-0.024269283 0.0397131 0.066932097
-0.02383177 0.039752401 0.067365974
-0.023375485 0.039778501 0.067681342
-0.022919202 0.039804701 0.067996703
-0.022462917 0.039830901 0.068312064
-0.021987861 0.039843999 0.068508901
-0.021512788 0.039857101 0.068705641
-0.021037733 0.039870098 0.068902478
-0.02056266 0.0398832 0.069099218
-0.020106375 0.0399094 0.069414571
-0.019612532 0.0399094 0.069492795
-0.019156247 0.0399356 0.069808163
-0.018681191 0.039948702 0.070005
-0.01820612 0.0399618 0.07020174
-0.017731063 0.039974801 0.070398569
-0.017255992 0.039987899 0.070595309
-0.016762147 0.039987899 0.070673525
-0.016305862 0.040014099 0.070988894
-0.015830807 0.040027201 0.071185738
-0.015355734 0.040040299 0.071382478
-0.014880677 0.040053401 0.071579307
-0.014405606 0.040066399 0.071776055
-0.01393055 0.040079501 0.071972884
-0.013455478 0.040092599 0.072169624
-0.012980422 0.0401057 0.072366476
-0.012505349 0.040118799 0.072563209
-0.012049065 0.040144999 0.072878577
-0.011574008 0.0401581 0.073075406
-0.011098936 0.040171102 0.073272146
-0.010623881 0.0401842 0.073468983
-0.010167595 0.0402104 0.073784344
-0.0096925236 0.040223502 0.073981091
-0.0092174662 0.0402366 0.074177928
-0.0087424107 0.040249702 0.074374765
-0.0082861111 0.040275801 0.074690029
-0.0078110532 0.040288899 0.074886858
-0.0073359832 0.040302001 0.075083606
-0.006879698 0.040328201 0.075398959
-0.0064046416 0.040341299 0.075595811
-0.0059295697 0.040354401 0.075792551
-0.0054732859 0.0403805 0.076107912
-0.004998228 0.040393598 0.076304741
-0.0045231571 0.0404067 0.076501481
-0.0040480997 0.040419798 0.076698326
-0.0035918159 0.040445998 0.077013686
-0.0031167455 0.040459 0.077210434
-0.0026416872 0.040472101 0.077407263
-0.0021854034 0.040498301 0.077722624
-0.0017291196 0.040524501 0.078037992
-0.0012540631 0.040537599 0.078234822
-0.0007977616 0.040563699 0.078550085
-0.00034149364 0.040589899 0.078865543
0.00013357773 0.040603001 0.079062283
0.00058986247 0.040629201 0.079377651
0.0010461463 0.0406553 0.079693012
0.001502431 0.0406815 0.080008373
0.0019587148 0.0407077 0.080323726
0.0024149986 0.0407339 0.080639094
0.0028712824 0.040759999 0.080954455
0.003327569 0.040786199 0.081269816
0.0037838519 0.040812399 0.081585176
0.0042401366 0.040838599 0.081900544
0.0046776319 0.0408778 0.082334518
0.0051339148 0.040904 0.082649887
0.0055902014 0.0409302 0.08296524
0.0060464852 0.0409563 0.083280601
0.0065027699 0.0409825 0.083595961
0.0069402819 0.041021802 0.084029846
0.0073965667 0.041048001 0.084345214
0.0078528496 0.041074101 0.084660575
0.0083091352 0.041100301 0.084975928
0.0087466305 0.041139599 0.085409917
0.0092029162 0.041165698 0.08572527
0.0096592009 0.041191898 0.086040631
0.010115484 0.041218098 0.086356007
0.010571769 0.041244298 0.08667136
0.011028052 0.041270401 0.086986721
0.011484337 0.041296601 0.087302081
0.011940621 0.041322801 0.087617442
0.012396906 0.041348901 0.087932803
0.012871977 0.041361999 0.088129543
0.013347033 0.041375101 0.088326387
0.013822091 0.041388199 0.088523224
0.014315936 0.041388199 0.08860144
0.014809779 0.041388199 0.088679656
0.015303622 0.041388199 0.088757873
0.015778694 0.041401301 0.088954605
0.016291309 0.041388199 0.088914305
0.016785156 0.041388199 0.088992529
0.017278999 0.041388199 0.089070745
0.017772846 0.041388199 0.089148961
0.018266689 0.041388199 0.089227177
0.018760528 0.041388199 0.089305393
0.019254375 0.041388199 0.08938361
0.019767011 0.041375101 0.089343205
0.020260854 0.041375101 0.089421429
0.020792257 0.041348901 0.0892625
0.021304887 0.041335899 0.089222096
0.021836294 0.041309699 0.089063168
0.022367693 0.041283499 0.088904239
0.022899099 0.041257299 0.088745318
0.023430504 0.0412312 0.088586383
0.023980683 0.041191898 0.088308938
0.024530873 0.0411526 0.088031396
0.02508105 0.041113399 0.087753944
0.025612455 0.041087199 0.087595008
0.026162647 0.041048001 0.087317467
0.026694048 0.041021802 0.087158531
0.027244223 0.0409825 0.086881086
0.02777563 0.0409563 0.086722165
0.028307032 0.0409302 0.086563237
0.028838437 0.040904 0.086404316
0.029369842 0.0408778 0.08624538
0.029882476 0.040864699 0.086204976
0.030395091 0.040851701 0.086164668
0.030888934 0.040851701 0.086242884
0.031420339 0.040825501 0.086083964
0.03189541 0.040838599 0.086280711
0.032408025 0.040825501 0.086240403
0.032920659 0.040812399 0.086199991
0.033414505 0.040812399 0.086278208
0.033908345 0.040812399 0.086356424
0.034383401 0.040825501 0.086553268
0.034858476 0.040838599 0.086750008
0.035314761 0.040864699 0.087065369
0.035771042 0.040890899 0.08738073
0.036227327 0.040917099 0.08769609
0.036664825 0.0409563 0.088130072
0.037083551 0.0410087 0.088682577
0.037539832 0.0410349 0.088997938
0.037977345 0.041074101 0.089431822
0.038452402 0.041087199 0.089628659
0.038946245 0.041087199 0.089706875
0.03940253 0.041113399 0.090022244
0.039877601 0.041126501 0.090218976
0.040371448 0.041126501 0.090297192
0.040846501 0.041139599 0.090494037
0.041340347 0.041139599 0.090572253
0.041852981 0.041126501 0.090531841
0.042346828 0.041126501 0.090610065
0.042859439 0.041113399 0.090569764
0.043372072 0.041100301 0.090529352
0.043922246 0.041060999 0.090251908
0.044416089 0.041060999 0.090330124
0.044947498 0.0410349 0.090171196
0.045441341 0.0410349 0.090249419
0.045991533 0.040995602 0.08997187
0.046485372 0.040995602 0.090050086
0.047016781 0.040969402 0.089891158
0.047566958 0.0409302 0.089613706
0.048135921 0.0408778 0.089217633
0.048667323 0.040851701 0.089058705
0.049179956 0.040838599 0.089018315
0.049692575 0.040825501 0.088978007
0.050261538 0.040773101 0.088581927
0.050849292 0.0407077 0.088067234
0.051380694 0.0406815 0.087908313
0.052043561 0.040563699 0.08691933
0.052574951 0.040537599 0.086760499
0.053143919 0.0404852 0.086364433
0.053919472 0.040288899 0.084664017
-0.045327969 0.037043002 0.03208952
-0.044834126 0.037043002 0.032167736
-0.044836432 0.037382901 0.035378505
-0.044620428 0.0375733 0.03721096
-0.04420596 0.037627701 0.037790328
-0.043791506 0.037682101 0.038369797
-0.04339689 0.037750099 0.039074503
-0.042982433 0.037804399 0.039653976
-0.042548131 0.037845202 0.040108103
-0.042113811 0.037886001 0.040562138
-0.041679502 0.037926801 0.041016266
-0.041245196 0.0379676 0.041470401
-0.040791057 0.037994798 0.041799292
-0.040317051 0.038008399 0.042002745
-0.039862905 0.038035601 0.04233164
-0.039388899 0.038049199 0.042535096
-0.038932614 0.038075302 0.042850457
-0.038457558 0.038088299 0.043047294
-0.037982486 0.038101301 0.043244038
-0.037526201 0.0381274 0.043559399
-0.037032358 0.0381274 0.043637615
-0.036576074 0.038153499 0.043952975
-0.036101017 0.038166501 0.044149812
-0.035625946 0.038179498 0.044346556
-0.035169661 0.038205601 0.044661917
-0.034694605 0.038218599 0.044858754
-0.034257092 0.038257699 0.045292638
-0.033782035 0.038270701 0.045489475
-0.033306964 0.038283799 0.045686219
-0.032813121 0.038283799 0.045764435
-0.032356851 0.038309801 0.046079893
-0.031881779 0.038322899 0.046276633
-0.031406723 0.038335901 0.046473477
-0.030931652 0.038348898 0.046670213
-0.030437805 0.038348898 0.04674843
-0.029981524 0.038375001 0.04706379
-0.029506465 0.038387999 0.047260631
-0.029031396 0.038401 0.047457371
-0.028537549 0.038401 0.047535587
-0.028062493 0.038414098 0.047732428
-0.027549863 0.038401 0.047692023
-0.028633565 0.039495699 0.057730481
-0.028346308 0.039639 0.059113041
-0.027890023 0.039665099 0.059428405
-0.027377408 0.039652102 0.059388101
-0.027371842 0.039990898 0.062549181
-0.02702824 0.040095098 0.063575976
-0.026628301 0.040160298 0.064247102
-0.026209578 0.0402124 0.064799614
-0.02577208 0.040251501 0.065233596
-0.025353357 0.040303599 0.065786101
-0.024915844 0.0403427 0.066219985
-0.024459559 0.040368799 0.066535339
-0.02404085 0.040420901 0.067087948
-0.023603339 0.040460002 0.067521825
-0.023147054 0.040486101 0.067837201
-0.022690769 0.0405121 0.068152554
-0.022215713 0.040525202 0.068349399
-0.021740641 0.040538199 0.068546131
-0.021284359 0.040564202 0.068861492
-0.020790514 0.040564202 0.068939708
-0.020334229 0.040590301 0.069255069
-0.019859172 0.040603299 0.069451913
-0.019384101 0.040616401 0.069648653
-0.018909045 0.040629402 0.069845498
-0.018433973 0.040642399 0.07004223
-0.017958915 0.040655501 0.070239067
-0.017483843 0.040668499 0.0704358
-0.017008787 0.0406815 0.070632644
-0.016533714 0.040694602 0.070829391
-0.016058659 0.040707599 0.071026228
-0.015583603 0.040720601 0.071223065
-0.015127318 0.0407467 0.071538426
-0.014633475 0.0407467 0.071616642
-0.014158402 0.040759701 0.071813382
-0.013702118 0.040785801 0.072128743
-0.013208274 0.040785801 0.072206967
-0.012751989 0.040811799 0.07252232
-0.012276934 0.040824901 0.072719164
-0.011801861 0.040837899 0.072915904
-0.011345576 0.040863998 0.073231265
-0.01087052 0.040876999 0.073428094
-0.010395448 0.040890001 0.073624834
-0.0099391639 0.0409161 0.073940195
-0.0094641084 0.040929101 0.074137047
-0.0089890361 0.0409422 0.074333787
-0.0085139796 0.040955201 0.074530616
-0.0080576949 0.0409812 0.074845977
-0.0075826375 0.040994301 0.075042814
-0.007107567 0.041007299 0.075239561
-0.0066325096 0.0410203 0.075436391
-0.0061574378 0.041033398 0.075633138
-0.005701154 0.041059401 0.075948499
-0.0052260966 0.041072499 0.076145336
-0.0047510262 0.0410855 0.076342076
-0.0042759688 0.041098502 0.076538913
-0.0038196845 0.041124601 0.076854274
-0.0033446122 0.041137598 0.077051014
-0.0028695557 0.0411507 0.077247851
-0.0023944844 0.041163702 0.077444598
-0.0019381987 0.041189801 0.077759951
-0.0014631432 0.041202798 0.077956796
-0.0010068594 0.041228801 0.078272156
-0.00053178705 0.041241899 0.078468896
-7.5502321e-05 0.041267902 0.07878425
0.00038076565 0.041294001 0.079099715
0.00085583702 0.041306999 0.079296462
0.0012933342 0.041346099 0.079730444
0.0017684065 0.041359201 0.079927176
0.0022059027 0.041398302 0.080361158
0.002680975 0.041411299 0.080557898
0.0031184731 0.0414504 0.080991879
0.0035747541 0.041476399 0.081307247
0.0040310407 0.041502502 0.081622608
0.0044685518 0.041541599 0.082056493
0.0049248217 0.041567702 0.08237195
0.0053811055 0.041593701 0.082687303
0.0058373902 0.0416198 0.083002672
0.0062936731 0.041645799 0.083318032
0.0067311851 0.041684899 0.083751924
0.0071874699 0.041710999 0.084067278
0.0076437527 0.041737098 0.084382638
0.0080812518 0.041776199 0.08481662
0.0085375346 0.041802201 0.08513198
0.0089938203 0.041828301 0.085447341
0.0094501032 0.0418543 0.085762702
0.0098876012 0.0418934 0.086196691
0.010343883 0.0419195 0.086512052
0.010800168 0.041945599 0.086827412
0.011256453 0.041971602 0.087142766
0.011712739 0.041997701 0.087458134
0.012169021 0.0420238 0.087773494
0.012644078 0.042036802 0.087970324
0.013100377 0.0420628 0.088285595
0.013575434 0.042075898 0.088482432
0.014069279 0.042075898 0.088560648
0.014544349 0.0420889 0.088757388
0.015056967 0.042075898 0.088717081
0.015532039 0.0420889 0.088913821
0.016025884 0.0420889 0.088992037
0.016519727 0.0420889 0.089070253
0.017032344 0.042075898 0.089029953
0.017526187 0.042075898 0.089108169
0.01800126 0.0420889 0.089304909
0.018495103 0.0420889 0.089383125
0.018988946 0.0420889 0.089461342
0.019482793 0.0420889 0.089539558
0.019976636 0.0420889 0.089617774
0.020489253 0.042075898 0.089577474
0.021001883 0.0420628 0.089537077
0.021533273 0.042036802 0.089378238
0.022064697 0.042010698 0.089219213
