# .PCD v0.7 - Point Cloud Data file format
VERSION 0.7
FIELDS x y z
SIZE 4 4 4
TYPE F F F
COUNT 1 1 1
WIDTH 1308
HEIGHT 1
VIEWPOINT 0 0 0 1 0 0 0
POINTS 1308
DATA ascii
0.031930666 -0.01015598 -0.0025776899
-0.11721729 0.12776315 -0.044302799
-0.048249837 0.052976187 -0.028989101
-0.033400197 0.029476155 -0.0109186
0.059720367 -0.043590851 -0.034784298
0.015189813 -0.040404029 0.070910797
0.015759904 -0.040563006 0.070890799
-0.080144368 0.04917752 -0.0113409
0.0097235292 -0.045685571 0.0702632
-0.06359303 0.05199936 -0.0113823
0.041578345 -0.023091106 0.061764698
0.044198971 -0.071336627 0.00096628099
-0.18328314 0.16813825 -0.034924701
0.038421005 -0.022117738 0.0030819499
0.046939023 -0.040606953 0.059792601
0.053996302 -0.030952387 -0.036408499
0.05975436 -0.056743164 -0.0292686
-0.081013255 0.080454461 -0.0222953
-0.14363788 0.15532033 -0.047550399
-0.065348364 0.029402858 -0.00717664
0.042268626 -0.01900623 -0.0386522
-0.043312252 0.032672517 -0.0068664802
0.03097672 -0.061039269 0.065032497
0.056099921 -0.045589931 0.0175799
-0.15603466 0.15879889 -0.040034398
-0.085929334 0.088904247 -0.024638901
0.052344888 -0.059949942 0.015876301
-0.038435876 0.041604422 -0.027208799
0.05156609 -0.071261331 -0.0237418
0.035153154 -0.010280707 0.0565878
0.057496943 -0.050877281 -0.0042185499
0.049407911 -0.025848638 -0.022204399
0.05887115 -0.044230975 -0.0519813
-0.012802297 0.014418697 -0.0198454
-9.4079471e-05 -0.0013852115 -0.0115764
-0.13270602 0.10431956 -0.0255748
0.057920292 -0.038311243 -0.0234074
-0.023070022 0.013589665 -0.0026976501
0.032652896 -0.015120618 0.062964603
0.045645326 -0.076595411 -0.027713301
0.036736876 -0.082631312 -0.027930601
0.0010422468 -0.046888027 0.070352398
0.039179303 -0.018523663 -0.0243372
0.012509651 -0.045236494 0.070580997
-0.080587022 0.088966735 -0.0384713
0.032465007 -0.042077091 0.070233203
0.052209292 -0.02754641 0.023018099
0.060618639 -0.056938358 -0.046305399
0.026197316 -0.060923807 0.068198897
0.056116082 -0.071568631 -0.048246101
0.050686624 -0.040185418 0.049621601
-0.022633594 0.00046879705 0.00284421
0.049819734 -0.032200519 -0.0573176
0.057561141 -0.066384152 -0.040738299
-0.10461334 0.099858277 -0.023302
0.042812351 -0.014295165 0.038501401
0.034017425 -0.014390167 -0.020768
-0.025254846 0.026314646 -0.018682299
0.056336135 -0.041372247 -0.0031975801
-0.081817284 0.089611217 -0.0352838
-0.13195002 0.11860874 -0.02416
0.05473157 -0.033189207 -0.0127119
-0.056970216 0.044552311 -0.0088464897
0.04583158 -0.022066232 0.054845199
-0.12849692 0.14026251 -0.0532673
0.03682081 -0.059178647 0.061244301
-0.10655535 0.11667553 -0.045756001
-0.076388128 0.072829612 -0.0194696
-0.13910058 0.1481134 -0.045154199
-0.005323261 -0.06081447 0.068832301
0.035252962 -0.045637894 0.0697501
0.059857029 -0.050786052 -0.0178471
-0.1565004 0.15501443 -0.036940701
0.0014680699 -0.010110319 0.0606291
-0.03539779 0.038593717 -0.0239469
0.056618016 -0.04976305 0.0100227
0.020796452 -0.025034837 0.068899602
0.052430697 -0.034919344 0.039347801
0.052826528 -0.039825927 0.039073799
0.040963139 -0.017608747 0.058711901
-0.095113307 0.10035454 -0.050912399
-0.14294887 0.15637815 -0.058175899
-0.12550436 0.097198464 -0.0229098
0.049503259 -0.025951385 -0.039559498
0.057324331 -0.06675557 -0.061776001
0.056968514 -0.044897627 0.0069804201
0.050870556 -0.02860466 -0.0121514
-0.13239844 0.13185973 -0.033041399
0.045510653 -0.021531958 0.054738902
0.030546455 -0.081458874 -0.0070326598
0.043626051 -0.048717778 0.0624354
-0.036328297 0.03891683 -0.0206425
0.045165766 -0.075122193 -0.0170433
0.059630603 -0.055173598 -0.0254269
0.054593105 -0.03627253 0.00436628
0.045643046 -0.053639747 0.051552098
0.045965407 -0.053105939 0.051540401
-0.011925112 0.0071620685 -0.0033418499
-0.065861374 0.052980687 -0.0115909
-0.061915193 0.062127721 -0.021093801
-0.14504084 0.16015741 -0.064645
0.051337644 -0.053398043 0.0306013
0.028243979 -0.059730753 0.068244599
-0.11375937 0.12146556 -0.038281798
-0.17392041 0.16176848 -0.035969298
0.057799987 -0.037395693 -0.027119
-0.039159156 0.025993278 -0.0045704502
0.052002423 -0.05870498 0.019403299
-0.032244429 0.031169912 -0.0143348
-0.0020305375 -0.027900446 0.068807296
-0.1039864 0.11336669 -0.049701899
0.041908003 -0.021276288 -0.017963801
0.053996578 -0.039241299 0.0284533
0.06041529 -0.05628027 -0.050102498
0.031595118 -0.0058403388 0.039625801
-0.10513505 0.10076787 -0.0231956
0.060477152 -0.050656855 -0.031968199
0.050239302 -0.030502677 -0.0507873
-0.071347781 0.074616306 -0.026757799
0.033840686 -0.068861753 0.042731699
0.048062719 -0.022603013 0.016265299
0.044685442 -0.043185439 0.063028298
0.058836203 -0.041178469 -0.024108101
-0.12552902 0.13708973 -0.053688399
0.049532682 -0.03410922 0.053490799
-0.035489276 0.017725281 -0.00184682
0.052211113 -0.031407461 0.0051947199
0.041630697 -0.086203218 -0.056614898
0.017161045 -0.038212579 0.070733801
0.04029312 -0.021315899 0.061989401
-0.15377671 0.16841853 -0.063588202
0.04063781 -0.012758628 0.052306999
0.032487504 -0.012166319 0.0037694599
0.036319174 -0.068424955 0.039593801
0.03147497 -0.0056877537 0.0429192
0.043892976 -0.016575497 0.0517173
-0.050836921 0.046877995 -0.012774
0.049426068 -0.057855856 0.0297214
-0.17660502 0.16194469 -0.0361702
0.045247115 -0.0171794 0.041322101
-0.10543312 0.11415809 -0.0390798
-0.050352938 0.054918908 -0.032577898
0.052375115 -0.05780115 0.0193872
0.049676992 -0.025194488 0.040497199
0.0037614554 -0.0089702476 0.060628001
-0.17056212 0.14021346 -0.0384029
-0.085434593 0.063938268 -0.0133441
0.048363127 -0.021485664 0.030624
-0.024703857 -0.0073320642 0.0021589999
0.05413029 -0.058132667 0.0087456703
0.041021362 -0.080320016 -0.031608101
-0.092341341 0.097319804 -0.0514769
-0.12650442 0.10271999 -0.022556501
0.056128688 -0.03907036 0.017797301
-0.019094532 0.0070287925 0.000190616
-0.02371766 0.019679528 -0.0089167096
-0.15817329 0.1689584 -0.049426999
0.035256471 -0.010403761 0.017785801
0.05272416 -0.034159586 0.0360815
-0.12454072 0.13365605 -0.043661602
0.040510532 -0.067943349 0.0323219
0.044911038 -0.016782179 0.0448085
0.058207799 -0.065226436 -0.0545328
-0.096197627 0.098508172 -0.0271852
-0.16796008 0.14573652 -0.034471799
0.035480343 -0.01688645 0.062677898
0.04957607 -0.052360635 0.041013502
0.042156942 -0.020534618 -0.025038499
0.060631946 -0.050468832 -0.046062998
0.058271557 -0.048843056 -0.0077388599
0.048225783 -0.024326118 -0.0255471
0.045258395 -0.029098377 0.061190099
0.036409236 -0.085834503 -0.0391066
0.059142966 -0.044560615 -0.0174517
0.049759559 -0.057226136 0.029847501
-0.055811159 0.024298564 -0.0046619498
-0.12926528 0.14169395 -0.056703001
0.042614855 -0.067367472 0.029002501
0.043945018 -0.052194279 0.058343198
0.038202353 -0.020285284 -0.0073391199
0.046738666 -0.067339621 0.0183529
-0.088185959 0.064304478 -0.0137548
0.047462113 -0.027932281 -0.0083635999
-0.084420972 0.09106379 -0.031707801
0.054405816 -0.038336739 -0.058607299
-0.055493943 0.037702814 -0.0064273202
-0.11569691 0.10495823 -0.0226612
0.05867818 -0.040330954 -0.0206996
0.059152529 -0.060224973 -0.061190501
0.046110995 -0.073417939 -0.0136608
0.051361926 -0.079082154 -0.0525769
-0.040999115 0.0043976679 -0.000121802
0.053464152 -0.057382636 0.0160344
0.02784008 -0.017854268 0.065739699
-0.079610601 0.070071265 -0.0164384
-0.083317235 0.091231525 -0.035062298
0.051430143 -0.027907237 -0.022628499
-0.12203357 0.12593217 -0.034163099
0.059186704 -0.063945733 -0.044200599
-0.058853447 0.063453205 -0.0281618
-0.017099891 0.0066690044 -0.031784602
-0.11609946 0.12657236 -0.044316001
-0.091940731 0.086062774 -0.0181066
0.05889231 -0.040683188 -0.034561899
0.036567863 -0.016252521 -0.0245256
-0.0060713273 -0.054581456 0.069413498
0.054941036 -0.073487781 -0.048740901
0.057861779 -0.064462163 -0.057884701
-0.15876395 0.15659782 -0.0368466
0.050884455 -0.037415564 0.049671799
0.0077835997 -0.0071555232 0.060231801
-0.16038461 0.17377882 -0.056009602
0.034966618 -0.014544885 0.0106419
-0.011884093 -0.055421412 0.066025898
-0.069225885 0.036113501 -0.0067058499
0.048257634 -0.032711476 0.056706399
-0.062626839 0.067788094 -0.034485102
0.054749288 -0.031625591 -0.0301226
0.039575033 -0.023381667 -0.00105119
0.054707613 -0.034457069 0.0078586303
0.038095303 -0.078706995 -0.0140636
0.038157281 -0.072140753 0.024966501
0.036671344 -0.0087810485 0.0284952
-0.093544587 0.077328846 -0.015723901
-0.051861305 0.055447552 -0.036146302
-0.1547976 0.16569732 -0.0501738
0.047874894 -0.066960804 0.0151289
0.055389289 -0.036954474 -0.051414099
0.042954631 -0.072735809 0.0039296201
0.046346474 -0.021174204 0.016534301
0.044943981 -0.041946948 0.062892102
0.058451276 -0.057246607 -0.0155517
0.059834879 -0.05042376 -0.063639797
-0.037713431 0.019156363 -0.00186878
0.040882058 -0.012115194 0.034974601
-0.091262773 0.095308766 -0.0277317
-0.1164733 0.12648378 -0.054834198
0.056497041 -0.043022286 0.0035288599
0.056216188 -0.038976513 -0.0067470102
-0.0044261948 0.0053895456 -0.0145316
0.050814539 -0.033853345 -0.065162003
-0.059586111 0.06013767 -0.0215603
0.06015344 -0.048681378 -0.0284828
-0.15303293 0.16634333 -0.057093401
0.032646503 -0.029565562 0.067975201
0.039381813 -0.015643321 0.058826599
-0.066547751 0.037331548 -0.00665724
0.040748373 -0.03725259 0.067014299
0.031770382 -0.010688409 0.00060978503
-0.044793166 0.044810392 -0.0166177
0.049826965 -0.028056568 0.046844799
-0.1622716 0.17439117 -0.0489696
0.05978103 -0.044310726 -0.031752799
-0.010225493 0.0012044692 -0.00090563297
-0.13583514 0.13393971 -0.032850601
0.057402261 -0.041030258 -0.051944099
0.045688577 -0.078098349 -0.035100799
0.033375822 -0.014257806 0.0068672299
0.0010786244 -0.0024871165 -0.0122182
-0.046990059 0.049092345 -0.019392399
-0.043199308 0.01878329 -0.00184175
-0.036912587 0.032870796 -0.010894
0.04003552 -0.022993755 -0.00435394
0.044839818 -0.021138962 0.0131303
0.052149355 -0.050798357 0.0306137
-0.11421137 0.097258821 -0.020214699
0.00079338037 -0.0024346523 -0.015691999
-0.17842591 0.15447488 -0.037148401
0.054473262 -0.050990079 0.019894499
-0.062690116 0.063457884 -0.041860901
-0.020503368 -7.0714392e-05 0.0025857401
-0.014580965 -0.036799125 0.067961603
-0.14327332 0.1334258 -0.0294144
-0.020865969 0.021476556 -0.015982401
0.054486725 -0.034283388 -0.0097429501
0.049835421 -0.026305385 -0.0191998
-0.13929813 0.15134223 -0.048501302
0.040714361 -0.037103072 0.066918299
0.041259602 -0.041272402 0.0665932
-0.11218891 0.11546738 -0.032022901
-0.049084343 0.053246774 -0.0261431
-0.048893239 0.053199787 -0.0258424
-0.12011243 0.13123095 -0.0509266
-0.032415193 0.033522058 -0.0180247
0.043662913 -0.015586411 0.0272632
-0.032001998 0.032812458 -0.028669801
-0.090684123 0.10000003 -0.044707999
-0.1347239 0.11693216 -0.0245854
0.046711512 -0.022941962 -0.032776602
0.027696846 -0.0041765179 0.036124799
-0.0037632936 0.0015788798 -0.0220295
0.034054484 -0.014304518 -0.00351581
0.040581949 -0.05522833 0.061231401
0.049867939 -0.040508863 0.052500699
0.03429649 -0.015123542 0.062240999
0.05155335 -0.045583587 0.041352
-0.1390162 0.12542425 -0.026814301
-0.13637088 0.12571363 -0.027039399
0.059619024 -0.044296592 -0.045709301
0.0072266329 -0.046224408 0.070168003
0.05327338 -0.045498878 0.0308489
0.040962927 -0.065387815 0.039345302
0.050243549 -0.032807797 -0.065150902
0.046546999 -0.071600154 -0.0100138
0.050154895 -0.031476475 0.049991298
-0.028524408 -0.00084108673 0.0025971499
0.056465797 -0.05091019 0.0094729103
-0.15438607 0.13230661 -0.0293379
-0.075223148 0.063544944 -0.014234
-0.083895221 0.092872307 -0.0418141
-0.12284073 0.12365791 -0.0311762
0.058713589 -0.046546835 -0.011117
0.058032826 -0.038482241 -0.0204535
-0.0024949322 0.0020387168 -0.018427501
-0.12875858 0.13986266 -0.0499731
0.055750094 -0.072280861 -0.052030899
0.038958475 -0.022262542 -0.00125617
-0.033741541 0.012019237 0.00060719298
0.035442501 -0.013903243 -0.0104272
-0.09788315 0.069378257 -0.0164649
0.050897922 -0.02721386 0.036234599
-0.16086166 0.17535259 -0.059491001
-0.077413477 0.084823988 -0.036097001
-0.054479465 0.044412427 -0.0094566597
0.059550561 -0.050955482 -0.015191
0.044055596 -0.082760513 -0.045843702
0.04999898 -0.03539956 0.052707899
-0.16698405 0.13917136 -0.035553101
0.056366768 -0.041630838 0.00363466
-0.039519768 0.041554246 -0.0309148
-0.0043937918 -0.047885895 0.0697532
-0.0016550384 -0.047420532 0.070164397
-0.12189666 0.11942954 -0.027930999
-0.060422231 0.061466832 -0.0217268
0.055457048 -0.045335159 0.020280899
0.05213372 -0.076923341 -0.049116101
-0.037057526 0.02526417 -0.0051395898
0.051207926 -0.070604473 -0.0204325
0.048708916 -0.064525567 0.018586701
-0.041858595 0.04118624 -0.034704201
0.033273891 -0.012792816 0.0104144
0.044354666 -0.022052605 0.0577434
0.041896187 -0.044683725 0.065740503
0.058892213 -0.048953734 -0.059855301
-0.030891497 0.012825 0.000196964
0.055564821 -0.034520656 -0.0410068
-0.047787648 0.049082551 -0.0368241
-0.0069398899 -0.0014363935 -0.00141394
0.047999598 -0.054013297 0.0438715
0.036528088 -0.022901399 0.0648752
-0.074534632 0.081297211 -0.0366125
0.058913786 -0.062070441 -0.054516301
-0.04573071 0.019760927 -0.0020810401
-0.089935511 0.08464025 -0.018595301
0.034866147 -0.013758423 -0.013855
-0.095223159 0.10575484 -0.037158798
0.052090894 -0.034990173 0.0425217
0.055063248 -0.034777679 -0.044736098
-0.08018703 0.076965757 -0.0197418
-0.088136911 0.097707301 -0.037909999
0.030257985 -0.0084096463 0.0143996
0.039360147 -0.075398698 0.0104938
-0.14227286 0.1560286 -0.055134598
0.048919603 -0.076391891 -0.038515199
-0.18062198 0.16929278 -0.035656299
0.058583595 -0.041521102 -0.0173351
0.033760712 -0.054639257 0.068610199
0.047415562 -0.039658129 0.0592083
-0.037852168 0.025623791 -0.00488964
-0.039890986 0.038556468 -0.0140173
0.038923677 -0.087198555 -0.050081398
-0.031487796 0.022125121 -0.0056476598
0.039092757 -0.021349896 -0.00811115
0.023614218 -0.024367323 0.068632998
-0.028339483 -0.0089783398 0.0013537999
-0.077367552 0.064448915 -0.0139325
0.057183988 -0.065342121 -0.030584401
0.032643531 -0.012620202 0.0105249
-0.067511439 0.069660917 -0.0240664
-0.13704871 0.14843534 -0.048818301
0.056200713 -0.040033951 0.017500799
0.042809792 -0.014080224 0.037894201
-0.036401037 0.012520774 0.000255764
0.052712407 -0.030145098 -0.040357102
0.055293936 -0.071706548 -0.062669002
0.048397198 -0.053437412 0.0437348
-0.069998994 0.0652439 -0.0175844
-0.12911576 0.11947578 -0.0246996
-0.13825516 0.14435436 -0.042334002
0.044738553 -0.034816802 0.063388497
0.05622679 -0.070308313 -0.044966199
-0.1233947 0.13311973 -0.044275999
0.041272338 -0.075357467 -0.00694597
0.060512569 -0.057262037 -0.064737901
0.042669613 -0.013999965 0.034355901
-0.16169901 0.17628609 -0.052384
-0.043088406 0.046504542 -0.0307956
0.024497243 -0.010717841 0.063082203
0.019935545 -0.038021702 0.0705541
0.053723782 -0.031098323 0.021968201
0.059585422 -0.056545258 -0.057346899
0.046152905 -0.06334082 0.028763499
-0.1243412 0.13660257 -0.057492599
0.057836913 -0.038002789 -0.0378525
0.044053916 -0.024934638 -0.0086474698
0.060393076 -0.046502162 -0.0388151
-0.050398227 0.037454303 -0.0071569402
0.057558496 -0.043357167 -0.059431799
0.057072669 -0.0448054 -0.0039502699
0.056009356 -0.038537469 -0.052045301
-0.066360421 0.070551656 -0.027359501
0.055351399 -0.032634318 -0.023630099
0.047444668 -0.069318131 -0.0065631
-0.032859467 0.018127827 -0.0025752501
0.051311586 -0.058133315 0.0225772
-0.14146391 0.12702605 -0.0271392
-0.16218339 0.17654447 -0.063033797
0.011688136 -0.03914167 0.0703995
0.014283927 -0.038486637 0.070655897
0.02851329 -0.0055546863 0.052761801
0.022988031 -0.037101865 0.070381798
-0.083257407 0.050569262 -0.0122657
-0.12384148 0.12090547 -0.0278631
-0.062167551 0.062527567 -0.0215331
-0.1062483 0.096827194 -0.020710601
0.047430523 -0.038594894 0.059388399
0.05897598 -0.041186497 -0.027835401
0.050687075 -0.03390836 0.049559101
-0.026706221 0.019418499 -0.0062865899
0.0060548754 -0.021496467 0.069002897
0.037705094 -0.080616347 -0.021762401
-0.027498335 -0.0077196294 0.00162858
-0.071147963 0.061857272 -0.0146301
-0.0020370774 0.00048625848 -0.00878629
0.039478969 -0.034525093 0.066990599
0.058173813 -0.064822681 -0.040997401
-0.12661569 0.13353093 -0.040538199
-0.078723371 0.08621408 -0.043222401
0.031830013 -0.011973907 -9.5695301e-05
0.05843693 -0.047162093 -0.060286101
0.034734812 -0.016015455 -0.00049713301
-0.09589351 0.10649509 -0.043886099
-0.011807761 0.012215451 -0.0105937
0.057578679 -0.04901598 -0.0044745202
0.03323023 -0.080335915 -0.0073311599
0.047286481 -0.020843886 0.0440825
-0.11145439 0.082478635 -0.018554401
0.055460874 -0.063344471 -0.0164499
-0.060135156 0.062628746 -0.039232701
0.049268883 -0.024779726 0.0432413
-0.15759605 0.15170428 -0.034486402
0.045391232 -0.067566901 0.0215334
0.048239999 -0.02124648 0.033268899
-0.085643955 0.090745561 -0.028736399
0.053949073 -0.057730667 0.0118942
0.043769866 -0.057161838 0.050265599
0.054671988 -0.06853915 -0.027615501
0.050995577 -0.027636077 -0.0161267
0.054465298 -0.031906266 -0.0163172
0.053467706 -0.043253429 0.0310944
0.036691785 -0.048000604 0.068953998
0.035131652 -0.052842077 0.068539098
0.035572149 -0.052754991 0.068350099
-0.06184876 0.06728825 -0.031454101
0.046285033 -0.020494141 0.050863501
0.054949149 -0.031959936 -0.0268708
-0.17947847 0.16190672 -0.036773499
-0.17096974 0.16333233 -0.036640599
0.042865951 -0.067369416 0.0282686
0.0086534079 -0.020720311 0.069044098
0.011377534 -0.020258376 0.069178797
-0.005413861 -0.027823873 0.0682787
0.05235954 -0.033570673 0.0391015
0.025018977 -0.022940302 0.068340801
0.048212931 -0.021244997 0.030041
0.036381233 -0.030202562 0.067225203
-0.13024586 0.14188895 -0.049833201
0.059972122 -0.059778154 -0.0508327
0.03994634 -0.052174777 0.064788498
0.044314172 -0.067237034 0.0251064
-0.096291743 0.076448865 -0.0159481
-0.040555004 0.044040207 -0.027406299
0.032701787 -0.019039117 -0.0598263
0.037699703 -0.062329952 0.0536681
0.047816683 -0.067163423 0.014662
0.050293606 -0.047119465 0.0445299
0.053338129 -0.038060974 0.034802701
-0.13385653 0.1331647 -0.033709802
0.046774708 -0.023804396 -0.0226955
0.042160526 -0.028904505 0.064101003
0.051234178 -0.052056916 0.033421502
0.059249483 -0.048710644 -0.0152278
0.04819474 -0.068247624 -0.0063284598
0.053921822 -0.074108064 -0.045536399
0.0446321 -0.046877138 0.061836399
0.042015754 -0.084704943 -0.0467433
-0.1079988 0.11467713 -0.0358929
0.047147531 -0.02017438 0.044041999
-0.083282679 0.078783378 -0.019331999
0.052104481 -0.042301364 0.041408699
-0.13132556 0.1251945 -0.0277646
-0.058974531 0.051041555 -0.0125907
-0.11151081 0.097003132 -0.020308699
0.031050941 -0.057941519 0.068174496
0.0054114996 -0.0073358207 -0.0166295
0.044902924 -0.073191643 -0.0104186
0.04231913 -0.020980734 -0.046533
0.042298704 -0.072153755 0.017315
-0.14089495 0.13278598 -0.0299308
0.052688759 -0.042242434 0.037865799
0.053469535 -0.033240978 0.028446101
0.058811031 -0.063416183 -0.041171599
0.04241151 -0.019816957 -0.028841101
-0.060889222 0.063640542 -0.0249011
0.03831638 -0.016534358 -0.038917199
0.043856502 -0.015799953 0.048014499
0.05462468 -0.034490857 0.0075117298
0.058507465 -0.064357564 -0.062022701
0.039052933 -0.061342806 0.053497002
0.038436156 -0.013729996 0.0167419
-0.13977547 0.14621849 -0.0425172
-0.059363626 0.064026549 -0.0283607
0.046548501 -0.066215023 0.0213193
-0.15170047 0.14946699 -0.034807
0.031706586 -0.067403443 0.049200799
0.031907171 -0.0098567726 0.0140415
-0.13643847 0.13777457 -0.036366399
0.036464613 -0.013897677 0.0133994
0.053670004 -0.037615977 0.031268999
-0.10447963 0.10706088 -0.0298071
0.036041539 -0.0082130767 0.031453699
0.014109039 -0.019159038 0.068975598
-0.15737432 0.16618323 -0.047118898
-0.025357705 0.025080867 -0.015920799
-0.0061293999 0.0055623725 -0.00804877
0.0349245 -0.029393891 0.067294598
-0.024281541 0.024684435 -0.026472799
0.056603771 -0.034985144 -0.020405101
-0.0049319686 0.0054788943 -0.0186847
0.035651967 -0.0078258514 0.038584001
0.058189701 -0.056754064 -0.012797
0.0025537866 -0.016136162 0.065934598
-0.14498101 0.14143325 -0.032692399
0.051299863 -0.028349763 0.036095701
-0.14135534 0.15472305 -0.051873099
0.041877847 -0.028303621 0.063920699
0.046594657 -0.023202045 0.053759102
0.043080918 -0.065770805 0.032017902
0.059377048 -0.04347584 -0.0252942
0.043242536 -0.050507709 0.061650801
0.040040847 -0.022718634 -0.0052569499
0.05934589 -0.057331 -0.026637301
-0.083697766 0.079711363 -0.019730199
0.060610164 -0.048535023 -0.035955701
-0.16113061 0.17853367 -0.062977701
-0.14085992 0.14246665 -0.036279801
-0.078438744 0.057911966 -0.0117729
0.030595919 -0.0055795368 0.00369638
-0.049745739 0.053194061 -0.022904299
0.058317222 -0.063756011 -0.058618799
0.04684224 -0.019492745 0.0402449
-0.031221328 -0.0017499868 0.00211692
-0.14691901 0.15049869 -0.038306899
-0.021304911 0.021784278 -0.016484199
0.056256413 -0.041407146 0.0171225
0.052409574 -0.066513628 -0.0134573
0.050350621 -0.027157174 -0.040778499
-0.028374981 0.012508373 1.50204e-05
-0.16276559 0.17502975 -0.0493575
-0.090573236 0.078730926 -0.016015001
0.018593963 -0.013202607 0.066079102
-0.152464 0.16686171 -0.061226901
-0.0055495738 0.0062283571 -0.0116623
-0.060292684 0.047654964 -0.0094030797
0.045611076 -0.020687453 0.0157438
0.03307151 -0.013866799 0.0064478498
-0.064098671 0.068969488 -0.0280686
-0.046876151 0.040739927 -0.0105721
-0.041429032 0.037174452 -0.0111281
-0.10714164 0.089869805 -0.017927499
0.049057063 -0.045048807 0.051219899
0.055131283 -0.037629347 0.00327817
0.042395346 -0.022312813 -0.0155506
-0.0052693835 0.0064552822 -0.0152484
-0.054084856 0.031032022 -0.00441986
-0.017420381 0.00082148612 0.0020044399
0.052104786 -0.031644508 -0.048043001
0.060921162 -0.052695699 -0.039899401
0.060298849 -0.04862402 -0.050158601
-0.063399769 0.068789907 -0.034857798
0.059857264 -0.053599566 -0.061262298
0.039752211 -0.011055698 0.037894301
0.056214646 -0.034460761 -0.0308093
0.055577349 -0.072567105 -0.063081302
0.051715188 -0.040205255 0.0449933
0.047666624 -0.02785109 -0.050896399
0.057861172 -0.039153159 -0.042143799
0.060203899 -0.056424204 -0.033495501
-0.12672828 0.11890625 -0.0251096
0.05047163 -0.026558984 -0.033309001
-0.10797572 0.076536566 -0.019455601
0.014608953 -0.0086713135 0.062774703
-0.02829499 0.030233311 -0.022762001
-0.0073371883 -0.048304193 0.0692081
0.035280384 -0.041607991 0.069386497
0.049235351 -0.065527648 0.00040772601
-0.13052829 0.14009874 -0.046870999
-0.056855626 0.030944191 -0.00476682
-0.11974818 0.097816549 -0.0205795
-0.018158238 0.014543985 -0.00687104
0.051950071 -0.031356771 0.038861301
0.024481878 -0.0071452605 0.059395701
0.053948849 -0.033207178 -0.010077
0.057097383 -0.050635405 -0.00138193
0.042221598 -0.040214799 0.065821499
-0.11270595 0.11634935 -0.0324159
-0.014532035 0.0092998836 -0.0287298
0.058344249 -0.066488124 -0.052067202
-0.036669165 0.029828519 -0.0085167903
-0.039318711 0.011450369 3.62098e-05
0.058188554 -0.038390253 -0.031718198
-0.036802813 0.038297884 -0.0178528
0.012976194 -0.012780018 0.066108704
0.015829198 -0.012327946 0.066103503
0.051579159 -0.035195153 0.0453352
0.037236687 -0.022646816 0.064470597
0.051788341 -0.026877325 0.0255097
0.04520303 -0.059238911 0.042732701
0.045408931 -0.058872391 0.042875599
-0.14610338 0.15964895 -0.062171999
0.052029233 -0.027440671 0.0148749
0.046475582 -0.07039813 -0.00726947
0.052121241 -0.076017432 -0.0461406
0.058948215 -0.061679948 -0.0551202
-0.11774787 0.12855794 -0.044952702
0.058794241 -0.048892599 -0.064107299
0.037577376 -0.059042819 0.0602507
0.034280006 -0.0073255142 0.0244483
0.056386616 -0.049765278 0.0123255
0.026807357 -0.010788631 0.062319499
-0.0725969 0.07778085 -0.030470001
0.052025437 -0.026973717 0.0220185
0.046438362 -0.058923889 0.039398499
0.034826018 -0.054811127 0.067814603
0.045628794 -0.022061191 -0.036708601
0.050002117 -0.026109394 -0.036819499
-0.039048906 0.042480711 -0.0247005
0.056943603 -0.045215942 0.0095384102
0.051457603 -0.032977868 0.000441015
0.047615029 -0.021894222 0.046781201
0.0072653024 -0.013287446 0.065764003
0.010089804 -0.012797768 0.065788701
0.048608217 -0.0220525 0.036199
-0.015172254 0.0066306298 -0.00099909306
0.046928719 -0.026943244 -0.051231299
0.042671677 -0.014532701 0.0271808
-0.14216617 0.13954636 -0.032839902
0.053006105 -0.034854934 0.034855999
0.045149993 -0.034722675 0.062880002
-0.0074557336 0.0071063675 -0.021991599
0.048320074 -0.058727305 0.032622602
-0.065575026 0.069623984 -0.0386847
-0.044250119 0.046929736 -0.020369301
-0.16419575 0.15416819 -0.034534801
0.060054298 -0.050700646 -0.026232099
-0.16156924 0.17661744 -0.0532801
0.035074927 -0.081568316 -0.018568501
0.046000928 -0.02711287 -0.054310199
0.052346591 -0.039355215 0.041555099
-0.14444908 0.12626168 -0.0275873
0.049677372 -0.030932175 -0.055162299
0.03372857 -0.011829328 0.0134727
0.038061753 -0.017414631 0.061502699
0.029776324 -0.036588017 0.070015103
0.053708058 -0.039656345 0.031109201
-0.11668166 0.099045388 -0.020648099
-0.044558384 0.042909317 -0.0142805
0.048576906 -0.025464611 0.049812101
-0.029794984 0.0048643844 0.0024270699
0.047561221 -0.026254222 -0.0475992
0.060211584 -0.0508352 -0.0293591
-0.0075554736 -0.028965145 0.067919999
-0.091040984 0.06283161 -0.0144027
0.026646053 -0.023737082 0.068069398
0.044259083 -0.027197193 -0.058277499
0.059996631 -0.060078625 -0.041100699
-0.13068728 0.11051463 -0.022734299
0.037700087 -0.0093210647 0.0486327
0.032379005 -0.080603465 -0.00464505
0.059397712 -0.056876391 -0.061571799
-0.097936779 0.10618766 -0.034185998
0.051528826 -0.034470804 0.045275401
-0.016552042 0.0072526117 -0.00088018202
-0.081729554 0.073066555 -0.016852301
0.045502752 -0.017879931 0.026201099
-0.10562972 0.11279962 -0.054063398
0.041805103 -0.080905519 -0.035899598
-0.075169317 0.082313441 -0.037006699
0.04881176 -0.057918232 0.032513902
-0.10993727 0.091461055 -0.018152401
-0.0025672654 -0.00081715942 -0.0228309
-0.16969885 0.1540681 -0.034375101
0.042563453 -0.052633718 0.060964402
0.054871842 -0.064337358 -0.0168113
0.060014062 -0.050010644 -0.0258779
0.00012700632 -0.040695257 0.069753803
0.0029185265 -0.040261731 0.069831103
0.0058702491 -0.039865501 0.069935001
0.0088816034 -0.039523814 0.070145503
0.025456717 -0.037113316 0.070128597
0.02845441 -0.036555812 0.069809698
0.046224713 -0.068952888 -0.00021076199
0.033030424 -0.012033556 0.0028920199
0.055620715 -0.039133504 0.020463601
-0.045673139 0.043032244 -0.013831
-0.090332732 0.09025301 -0.0218194
-0.026968971 0.0057636835 0.00226501
0.05694209 -0.043970741 0.00951475
-0.019859852 0.015791556 -0.0072269998
0.036589261 -0.010265563 0.0204417
-0.030395348 -0.0081156483 0.00090512598
0.054327715 -0.058013108 0.0077074198
-0.12776013 0.11154318 -0.0224593
0.054760329 -0.058493748 -0.0023861199
-0.072314344 0.078638218 -0.034102999
0.035981417 -0.057961158 0.064045496
0.045305904 -0.052647065 0.053736299
0.051449832 -0.042800013 0.0442704
0.048712157 -0.021654641 0.0256976
-0.01883387 0.020100402 -0.0206705
0.060872465 -0.050564475 -0.043542098
0.059005611 -0.044557668 -0.0150734
0.040992856 -0.06783203 0.031599499
0.053391378 -0.052638922 0.022584001
0.05663519 -0.069652237 -0.0560931
0.051744472 -0.057341654 0.02193
-0.15881291 0.16473129 -0.043878201
-0.11831415 0.12945235 -0.055310201
-0.14953403 0.14847772 -0.035334401
0.052048139 -0.033692993 0.041807499
0.051395372 -0.062770091 0.0108831
-0.0077161216 0.0044277548 -0.00489697
0.054749012 -0.038105816 -0.055883002
0.028565444 -0.0076150345 0.00359786
0.046213318 -0.079465598 -0.039589699
0.05632383 -0.038949143 0.010106
-0.027749231 0.0061021913 0.0022738599
0.035572268 -0.062743947 0.056446999
-0.0141076 0.01269741 -0.0076805898
0.047741912 -0.052243121 0.0471926
-0.13831052 0.13272452 -0.030594099
-0.073883273 0.075092427 -0.023958599
-0.1523277 0.16509329 -0.058006499
0.035988756 -0.0081450948 0.0485675
-0.11309605 0.10545217 -0.0237696
0.055107754 -0.034147765 0.0175568
0.047674745 -0.046849623 0.054540001
0.030332841 -0.01724552 0.064869002
0.048029926 -0.021170508 0.0258874
-0.01192758 0.012696126 -0.0109106
0.054660477 -0.057328932 0.00441647
0.042373259 -0.015934944 0.054655999
0.051471718 -0.034317344 -0.062439501
0.051216308 -0.052237537 0.033148199
0.048751187 -0.028482702 0.0526977
-0.17229164 0.15470025 -0.0344138
-0.16677584 0.15560223 -0.034604002
-0.17040831 0.14556441 -0.035317998
0.053703967 -0.034829151 0.00329363
-0.09701094 0.10727993 -0.037323002
-0.018512657 0.012248177 -0.0040027499
0.054317757 -0.056956865 0.0116086
-0.081418209 0.056374542 -0.0120903
0.05142146 -0.033551279 -0.0554743
-0.0088923834 -0.055010851 0.068405099
0.0050726235 -0.0068060504 -0.0066471398
0.038648449 -0.067414939 0.0383722
-0.065953091 0.071601897 -0.031322401
0.043286081 -0.015592841 0.050961901
0.024021983 -0.06335707 0.066892602
0.054555014 -0.032195292 -0.038303401
-0.028889719 0.028601989 -0.016042599
0.016932903 -0.018799769 0.0686808
-0.069728442 0.071795382 -0.024535101
0.050541148 -0.02716092 -0.0200202
-0.059997983 0.055512093 -0.015850799
-0.12939903 0.10335904 -0.023734201
0.056188118 -0.041894529 -0.0602872
0.059328813 -0.050504725 -0.061061401
0.05972746 -0.048562251 -0.0225549
0.030762075 -0.062328614 0.0636435
-0.12763983 0.14218324 -0.061239298
0.050004132 -0.028347334 0.046094
0.051133104 -0.079088531 -0.0537958
-0.099081576 0.076480016 -0.0163274
-0.03479154 0.036665823 -0.018797999
0.055576771 -0.051931843 0.0156197
0.055979241 -0.038852345 0.00642693
0.035972342 -0.015924642 -0.021871701
0.042071775 -0.078954488 -0.025634401
0.05318654 -0.042169262 0.0341627
-0.06176991 0.059726089 -0.0190855
0.040406488 -0.011611386 0.044277601
-0.10803428 0.10652319 -0.0268394
0.044249397 -0.015702493 0.043748502
0.036380619 -0.0083032427 0.0342834
0.056739602 -0.042465996 0.0131342
0.048678331 -0.072528273 -0.018159701
0.012319508 -0.032809544 0.0706416
-0.07581763 0.057733402 -0.0118586
-0.15360031 0.17002794 -0.064457998
0.028813481 -0.004652679 0.0418844
-0.18249387 0.16259244 -0.037105199
-0.12404232 0.13484974 -0.048112702
0.040245127 -0.011676732 0.040739998
0.049404152 -0.027929952 0.0495735
0.059869744 -0.044269331 -0.0291663
0.041298598 -0.023222789 -0.0090144603
-0.030892806 0.03268693 -0.025942
-0.13775672 0.14231323 -0.040133201
0.04674929 -0.020717468 0.018866099
-0.11085965 0.11495602 -0.033142202
-0.039303511 0.032210439 -0.0086264601
-0.012496335 0.0036781249 -0.029695099
0.04898268 -0.061012894 0.0247778
0.031870659 -0.011227559 -0.0108264
0.050722338 -0.027714891 -0.041005898
0.045195203 -0.083789587 -0.0542209
-0.087965757 0.078849986 -0.0167815
-0.088844568 0.091712788 -0.0253522
-0.024255181 0.020973371 -0.0102369
-0.0022930768 -0.0023519425 -0.00233954
0.052846286 -0.046247903 0.033601601
-0.13398026 0.14715256 -0.053659901
-0.050970804 0.052779708 -0.020140501
-0.045235537 0.040581934 -0.0112833
-0.0039074635 0.0011313772 -0.0229578
-0.049002014 0.017820999 -0.0031880699
-0.10567386 0.11557387 -0.046885502
-0.030998293 0.033417527 -0.0226944
0.010495086 -0.032709818 0.070463702
0.013369277 -0.032384288 0.070493698
0.01613383 -0.031820979 0.070309304
0.055799119 -0.067065373 -0.0280046
0.05049178 -0.050599709 0.039748099
0.033406809 -0.038090177 0.069620997
0.039401129 -0.010918532 0.0512788
0.030945275 -0.01040621 0.0030142099
-0.076606236 0.083913662 -0.040454701
0.037278034 -0.046859749 0.068507902
0.038249366 -0.022836739 0.00168559
0.037806898 -0.071605273 0.0275729
-0.16466278 0.17458752 -0.046369702
0.046801656 -0.082900852 -0.050393201
0.060210511 -0.052409954 -0.0301325
0.050825492 -0.027924433 0.0390657
0.050169982 -0.045435674 0.0473915
-0.017570037 -0.037143864 0.067100301
0.060753923 -0.048554782 -0.040259302
0.053795315 -0.046287127 0.0262217
0.054638419 -0.03270654 0.0174332
0.059222877 -0.062921867 -0.052124899
0.040052142 -0.020628028 -0.050338
0.059160009 -0.056995437 -0.0237121
-0.012720516 0.0057947952 -0.00169191
0.052400772 -0.034284208 -0.00333399
0.03190925 -0.06612733 0.052434001
0.050970122 -0.045364022 0.043853
-0.032520954 0.033041093 -0.029394301
0.039370414 -0.065729752 0.041842699
0.0040117269 -0.0057337498 -0.0137954
0.054749556 -0.045711778 0.0228795
0.035437986 -0.007605006 0.034485299
0.058932789 -0.056154028 -0.016359899
-0.10899562 0.11595593 -0.036713898
0.036471367 -0.018368367 -0.0052654701
0.05680627 -0.061336804 -0.0170567
-0.11314116 0.12402579 -0.046075702
-0.027584225 0.025614027 -0.0131523
0.056215625 -0.050836112 0.0121417
0.032390729 -0.083351471 -0.018999301
-0.08729963 0.096891224 -0.0389557
0.056931451 -0.051022224 0.0014150999
-0.12543185 0.13163073 -0.038215902
0.048438564 -0.077292442 -0.039647099
-0.014117471 0.013389387 -0.0248596
-0.048634142 0.031641804 -0.0049407501
-0.16491243 0.1748406 -0.046395902
-0.14245109 0.14710484 -0.0396185
0.060526527 -0.057267725 -0.0408777
0.045284677 -0.070827425 0.0062736301
0.045244485 -0.022830987 0.056735002
0.0470469 -0.059559621 0.035437498
0.048983622 -0.035596725 0.0556744
0.04892819 -0.022982802 0.036049102
0.041264262 -0.022088695 -0.0124307
0.040475979 -0.059943058 0.0531439
0.04206752 -0.027301513 0.0634683
-0.13190272 0.13962895 -0.043850102
0.045938917 -0.022596875 -0.033590101
-0.11263443 0.089496948 -0.0184358
0.024682591 -0.004462624 0.024478
0.037775882 -0.020406591 -0.0541826
-0.11640916 0.12794988 -0.055971101
0.053195834 -0.033679284 -0.0072325501
-0.14550896 0.15554439 -0.045612801
-0.0015607435 -0.0013243997 -0.0059350398
0.050008707 -0.026099846 -0.026976701
0.057931133 -0.03791558 -0.018090701
-0.10523399 0.10862108 -0.030705599
-0.16628885 0.16200119 -0.037682399
0.034566224 -0.013792055 -0.0079016704
-0.10795787 0.11657996 -0.040142901
-0.094152234 0.092530541 -0.0221761
0.051082738 -0.035472527 0.048447799
-0.034375511 -0.0015246663 0.00144139
0.039108582 -0.05964601 0.0565763
0.057029106 -0.065691955 -0.0317907
0.051687218 -0.02733963 0.0283492
0.029597608 -0.0089814905 0.0101629
0.052385546 -0.027648596 0.0177627
0.059090853 -0.050765969 -0.0124072
0.050139572 -0.0260855 -0.030745501
0.052025318 -0.054237403 0.02565
-0.10329125 0.10025195 -0.0243767
0.049897522 -0.059373088 0.025038701
0.0024779164 -0.0053770081 -0.02038
-0.013000403 0.00076931017 -0.030249899
-0.1106279 0.12078402 -0.0431557
0.051829927 -0.039931841 0.044327799
-0.091786653 0.10080142 -0.045623802
-0.017229203 0.018401206 -0.0210477
0.052058272 -0.04951115 0.032826699
0.011634776 -0.058195807 0.070700303
0.014520256 -0.057584792 0.070740797
0.01730023 -0.057221238 0.070956498
-0.10995498 0.11675976 -0.036693498
0.059244156 -0.042119637 -0.0254857
-0.0495524 0.054136608 -0.030703099
0.030065145 -0.0097452551 -0.0145145
0.056806486 -0.045048933 0.0123616
0.048190854 -0.064054608 0.0211956
0.042822774 -0.059008438 0.049314901
-0.099688523 0.10904884 -0.048149999
0.052705266 -0.031187348 0.031438399
-0.034987338 0.033439472 -0.033140801
-0.014930429 0.014266105 -0.025020501
-0.051123425 0.032313265 -0.0049621798
0.045539632 -0.022008995 -0.037163801
-0.1138727 0.12490112 -0.0496764
0.055749599 -0.071443528 -0.059828799
0.055592757 -0.064830452 -0.020969599
-0.0098860487 -0.029779654 0.067645296
0.029245589 -0.023512255 0.067404203
0.044495944 -0.027903233 -0.058460601
-0.040067326 0.037062999 -0.036148399
-0.12836234 0.12825169 -0.0314105
-0.075264715 0.082048871 -0.033885598
0.057851475 -0.041495513 -0.0113221
0.041687693 -0.035215061 0.0659035
0.024860069 -0.002883641 0.038475301
0.053270824 -0.049183339 0.0259565
0.039917052 -0.053670466 0.063882403
-0.042104285 0.011675888 -0.00074791902
-0.031307682 0.026675921 -0.0096571399
-0.085682839 0.076621488 -0.016875699
0.050470885 -0.030952286 -0.052046701
-0.13760884 0.11781068 -0.0256755
0.053430144 -0.039670493 0.033773702
0.019936983 -0.056488331 0.070974298
0.022711696 -0.055981129 0.070879199
-0.1356418 0.14895584 -0.053661
0.058693174 -0.065439939 -0.045732301
-0.10981176 0.10883155 -0.027199101
0.058241136 -0.043917373 -0.063864797
0.033239562 -0.012740339 -0.0044535398
0.045001082 -0.0222326 -0.043828301
0.057873197 -0.037758812 -0.0353457
0.0092805466 -0.0085795512 0.062206998
0.049712941 -0.04340598 0.0509298
0.042811658 -0.024987925 -0.0062609599
-0.11762622 0.1288951 -0.055873498
-0.15504095 0.16833979 -0.0546382
-0.088060498 0.097857088 -0.039202198
-0.070925385 0.056809548 -0.0126194
0.053368613 -0.034753583 0.0311844
0.042251602 -0.021382852 0.060346399
0.047477785 -0.034396213 0.058822699
0.0027173217 -0.0046122009 -0.0170504
-0.1220507 0.13327792 -0.048406299
-0.039082658 0.038753543 -0.0151703
-0.024416644 0.0057355398 0.0019398601
0.042421333 -0.013813814 0.0301759
-0.15012674 0.13861661 -0.0298193
0.050688069 -0.043389533 0.047330901
-0.15490369 0.16862376 -0.0579363
0.055464052 -0.03260088 -0.0208611
0.052244753 -0.07507512 -0.042810202
0.054348014 -0.06408114 -0.0138913
-0.12208676 0.13323577 -0.052009199
0.048656359 -0.04311721 0.054531701
-0.042837162 0.046978574 -0.0278371
-0.10107839 0.070401013 -0.0173134
0.041483551 -0.073561303 0.0130261
0.053070411 -0.034444019 -0.052684899
-0.01409165 0.015427923 -0.021545799
0.031309322 -0.0057484182 0.044932999
0.043216407 -0.01687826 0.0541557
0.054236915 -0.034655232 0.0239569
0.020434001 -0.056075402 0.071124598
0.025420822 -0.055214487 0.0707433
0.059647813 -0.04965435 -0.0159161
0.050038785 -0.033995852 0.051991899
0.057707038 -0.037547808 -0.035319399
-0.04354316 0.046793856 -0.0313101
-0.0026906524 -0.041155912 0.069521397
0.02755427 -0.069351286 0.048457298
0.040198427 -0.080473438 -0.029776201
0.031065049 -0.03610193 0.069667801
-0.0031523444 0.00023315719 -0.0058911098
0.058310054 -0.064348735 -0.038709302
-0.056024667 0.050552193 -0.0136211
0.033128519 -0.080147609 -0.00145906
0.048891358 -0.024912216 -0.037326802
-0.16843218 0.16336873 -0.037428498
0.043811735 -0.07437066 -0.0114895
-0.013465611 -0.029543819 0.0672879
0.060876388 -0.05056173 -0.040658701
-0.088661328 0.09839876 -0.042553101
-0.13578592 0.14105703 -0.040693499
0.042156328 -0.07367374 0.0059946198
0.059902649 -0.046711255 -0.050752401
-0.1250764 0.11180726 -0.0228894
-0.063770182 0.067109667 -0.0254914
-0.051010758 0.055401035 -0.0269325
0.035989899 -0.019105155 -0.0611705
0.048511218 -0.021616507 0.025314299
0.013699245 -0.056685861 0.070916399
0.035469458 -0.016000748 -0.00486639
0.032770693 -0.0122865 -0.0148483
0.041652538 -0.024315774 -0.00626498
0.042765699 -0.085830085 -0.057940699
0.03720456 -0.0095203361 0.0234513
0.056710023 -0.037536029 -0.0458345
0.033486079 -0.012855291 -0.0254819
-0.084177271 0.055841982 -0.0125101
0.045077696 -0.02402164 -0.0163364
0.047774434 -0.067744374 0.00998771
-0.14345786 0.11805367 -0.029042
-0.17750716 0.17147592 -0.036460999
-0.0587257 0.023851432 -0.0058093402
-0.12163294 0.090334572 -0.021842901
-0.032475818 0.0056240037 0.0020965601
0.042044669 -0.01314753 0.029704301
0.059310157 -0.058937464 -0.0308327
0.043496475 -0.026355833 -0.058486201
-0.01692787 -0.04318893 0.066134602
-0.10209686 0.11006764 -0.051320601
0.036490098 -0.012237354 0.058133598
0.038236815 -0.016480751 -0.0297889
0.050810609 -0.052007366 0.035746899
0.059063677 -0.048933659 -0.0124161
0.042407252 -0.023290589 0.0077297101
0.044698648 -0.067466207 0.023805801
0.050298303 -0.02759333 -0.0135055
-0.14438166 0.15782382 -0.052739501
-0.065420695 0.063040785 -0.0190387
0.016340308 -0.051014483 0.071268
0.019096395 -0.0504677 0.071479999
0.021893617 -0.050046336 0.071479902
0.02480983 -0.049535647 0.071419299
0.02779196 -0.04924871 0.0714854
0.044778802 -0.079132803 -0.036664099
-0.072698385 0.079126045 -0.0382872
0.059779312 -0.050529357 -0.0547603
0.033593055 -0.011189144 -0.00455302
0.05159786 -0.027928662 -0.034685601
0.059527077 -0.044423737 -0.025841201
-0.032434747 0.019419774 -0.00348738
0.033894219 -0.062504306 0.059551701
0.041287154 -0.07213334 0.019890601
0.046115912 -0.027469983 -0.0067364601
0.053410817 -0.032750722 -0.045451298
0.02260167 -0.031619005 0.069930702
0.052235369 -0.042487878 0.040294498
-0.077909335 0.083377004 -0.030618399
0.053230826 -0.033404831 0.031158701
0.047697909 -0.021273918 0.0217879
0.058558077 -0.063284844 -0.038644899
0.053710762 -0.042427946 0.029702401
0.056977328 -0.05773307 -0.0102948
0.059722859 -0.048707757 -0.019385099
0.025117798 -0.063259438 0.066527799
0.030433774 -0.0050863698 0.031160999
0.039679438 -0.02350647 0.00088673801
-0.11186267 0.12261845 -0.050147701
-0.12991691 0.1298846 -0.0315664
0.03715007 -0.029214732 0.066537403
-0.14445546 0.15798929 -0.059689499
0.052913133 -0.051629204 0.025241399
0.043538518 -0.0204788 -0.040671598
0.040806532 -0.051680014 0.063990198
0.047149982 -0.07280679 -0.0150178
0.050275445 -0.028351642 0.045249298
-0.10189074 0.0763041 -0.0170446
0.054048762 -0.056877062 0.0142639
0.057070632 -0.062938154 -0.024323
0.03077477 -0.016944988 0.064653397
-0.077116385 0.071089566 -0.0180756
0.060741272 -0.049497064 -0.043998498
-0.069335952 0.049894445 -0.0100922
0.05968729 -0.04996622 -0.054428998
0.054988749 -0.042062014 0.0228345
0.044918247 -0.026498176 0.0037065099
0.048545636 -0.072880067 -0.0187156
0.036303837 -0.015581462 -0.0155851
0.0079955244 -0.033463314 0.070063397
0.043995883 -0.071984276 0.0092805
0.047665 -0.020905636 0.0219763
-0.020242892 0.020571988 -0.0243295
0.050847374 -0.024776252 0.0213091
0.048266988 -0.056158584 0.038964201
-0.13261403 0.14238761 -0.0475461
0.049558215 -0.028197549 0.0490794
-0.044385556 0.048801903 -0.0245884
0.038007535 -0.061137415 0.055973802
-0.08695741 0.070070952 -0.0147336
0.039560918 -0.019462828 -0.0195815
0.057351407 -0.047359843 -0.0021742899
0.057726685 -0.041089233 -0.049830399
0.055342719 -0.034856528 -0.0112974
0.052483484 -0.046165846 0.036221601
0.05610789 -0.041871902 -0.060609698
0.054232523 -0.072596744 -0.042816199
-0.048284899 0.048907604 -0.017556701
0.0042463485 -0.0073665902 0.055664498
-0.15483266 0.16621926 -0.051384602
0.055529423 -0.038894035 -0.0043128398
0.042326823 -0.025515564 -0.062094498
0.056388393 -0.056622826 -0.0063297502
0.0099071357 -0.064635754 0.069718301
0.012652127 -0.064133868 0.069756702
0.048611805 -0.027765686 0.052649699
-0.055618551 0.060521159 -0.0303043
0.056845903 -0.068320885 -0.056320298
0.050435469 -0.027963936 0.041795399
-0.03443465 0.037432287 -0.02265
0.0050378414 -0.033735447 0.0698274
-0.01295777 0.0095806103 -0.0048486898
0.018936174 -0.031563632 0.070022501
0.022025678 -0.030779064 0.069869898
0.0365666 -0.015299079 0.061042599
0.060406171 -0.05761756 -0.038219102
-0.012102799 0.013919782 -0.0151205
0.054547958 -0.032970235 0.020326
-0.12254521 0.096164651 -0.0216024
-0.046010882 0.031833231 -0.0053760698
0.040574454 -0.020078151 -0.047649201
0.045272104 -0.050276168 0.0571707
0.051240496 -0.04071378 0.047307
0.02000729 -0.017661512 0.068000101
-0.15683176 0.13120444 -0.030812399
-0.052251663 0.039964061 -0.0078390501
0.05288177 -0.028432414 0.0173901
0.043556243 -0.041073382 0.064791903
-0.12244081 0.13141194 -0.041996799
-0.03181725 0.033430777 -0.019733399
0.029550383 -0.015842853 0.0646175
0.059825327 -0.044061121 -0.043566901
0.029924195 -0.0070833312 0.0549969
0.049883086 -0.050144631 0.042883299
-0.02056716 0.021643858 -0.021106699
0.039422754 -0.023598354 0.063575096
0.058562752 -0.044706579 -0.053998601
0.056179047 -0.037138797 0.0128627
-0.042461917 0.045656398 -0.0217309
0.056226954 -0.034812063 -0.035511699
0.035257675 -0.0081887031 0.0232665
0.029303174 -0.011261622 0.0615585
-0.0084837433 0.0062042247 -0.0057578702
-0.0098737255 -0.048793823 0.0685573
0.052928958 -0.060833242 -0.00023382901
0.057186626 -0.066820107 -0.0391551
0.05043821 -0.026539773 -0.0275295
0.04768749 -0.0358334 0.058558501
0.043266818 -0.014689427 0.0399976
-0.056466036 0.060937002 -0.033330102
-0.085782409 0.092937887 -0.032818001
0.043689318 -0.05997356 0.045483001
-0.0091554224 0.010534979 -0.0190026
0.044967361 -0.071031258 -0.0046721702
0.045737941 -0.02522416 0.0075862398
0.026779216 -0.0041187862 0.0276506
0.055934723 -0.050447162 0.0148729
0.044553734 -0.054814011 0.0527156
-0.028552594 0.030176615 -0.020300301
0.049839612 -0.064679481 0.0132887
0.026714204 -0.047085576 0.071654402
-0.0023477208 0.0027810144 -0.0130725
0.059762441 -0.062053874 -0.045426201
-0.11554697 0.089343444 -0.019057499
0.034200963 -0.013543636 -0.0052689002
0.052233808 -0.030950487 -0.045625102
0.012542315 -0.026667774 0.070338503
-0.023631498 0.022368815 -0.0139033
0.060534082 -0.056469716 -0.037819799
0.039455272 -0.075592093 0.0089449296
-0.021496426 0.021865822 -0.0246279
0.037566841 -0.041189358 0.0685618
0.053513549 -0.044855274 0.029598501
0.060585022 -0.057035513 -0.0483764
0.058478694 -0.050944824 -0.0097817499
0.039004222 -0.045104608 0.0679252
-0.10850376 0.099358529 -0.021719901
0.047312807 -0.022177387 0.049362201
-0.08943449 0.071067512 -0.01473
0.056990769 -0.045649905 0.0082400404
-0.015208868 -0.030955302 0.0671148
-0.014309251 0.0017015496 0.00086104899
0.030968053 -0.023854619 0.067078203
-0.072552644 0.0646571 -0.0157681
0.058991432 -0.043764323 -0.0503271
0.058043059 -0.066109173 -0.042552199
0.054309197 -0.040268339 0.026593
0.056018692 -0.033721518 -0.0214292
0.060266793 -0.057048865 -0.052286401
0.025182616 -0.0039523086 0.0272505
0.059894435 -0.057943329 -0.062321998
0.05933078 -0.055640046 -0.023896201
-0.15456697 0.14621454 -0.032877199
-0.088290259 0.09749873 -0.036021002
0.019045737 -0.047964815 0.071667098
0.0031174459 -0.059418965 0.070520803
0.0062148664 -0.059006251 0.070589699
0.0086450838 -0.058567982 0.070606202
-0.052774452 0.05420997 -0.020684401
0.059871122 -0.057391472 -0.055670898
-0.16104895 0.16758564 -0.044675101
-0.087740444 0.084840797 -0.019810401
0.0097153112 -0.026892986 0.0702755
-0.018596115 0.019168826 -0.014596
-0.032275338 0.029464584 -0.033876799
-0.059616264 0.031193811 -0.0053552999
0.052546501 -0.049440302 0.029180501
0.031483818 -0.0597119 0.066291504
0.047518913 -0.043901298 0.0573815
0.060140349 -0.046486706 -0.0300618
-0.022004474 0.0058859168 0.0014846
0.04016953 -0.021381948 -0.0096774101
0.043299172 -0.014517147 0.0296243
0.03538632 -0.020295735 -0.057987899
0.050459843 -0.029024277 -0.0105673
-0.026308611 0.026561338 -0.0276572
0.060625296 -0.056284267 -0.041561399
-0.064934134 0.044035003 -0.0076063001
0.057887577 -0.043971047 -0.0611366
-0.094906762 0.084412277 -0.016638
0.050189622 -0.069693759 -0.0151258
0.05607599 -0.049166299 0.0150627
0.033180021 -0.081959046 -0.016026501
-0.074458212 0.051408183 -0.0102772
-0.006565528 0.0079096761 -0.0125366
-0.050131399 0.02397104 -0.0031483499
0.0065855701 -0.0091396142 0.0620257
0.03532055 -0.081610508 -0.0196438
-0.0074644592 -0.042345136 0.068808302
-0.013911704 0.015748622 -0.0150243
0.055345163 -0.032698482 -0.0181012
0.045242049 -0.025797695 0.059497301
-0.11669763 0.12523127 -0.039772499
0.04793366 -0.034364 0.058240499
-0.02680511 0.027252279 -0.0170232
-0.093751363 0.062224336 -0.0154673
0.055952359 -0.04059137 -0.00149715
0.053829756 -0.058680315 0.0067228698
0.05756294 -0.064500779 -0.0321608
0.057055149 -0.045181263 -0.0019363801
0.048102859 -0.058064122 0.0351125
0.032248866 -0.080610305 -0.0057941698
0.055392947 -0.033012364 -0.031859901
0.050667413 -0.057935551 0.0246701
0.059986144 -0.050182126 -0.0235963
0.0042726505 -0.013523405 0.064976998
-0.037034862 0.038903229 -0.029528501
0.054195367 -0.058473885 0.0033028701
-0.031311907 0.030606454 -0.0305655
0.042829197 -0.021149423 -0.0233982
0.060686242 -0.055822041 -0.044890098
-0.065455548 0.0708436 -0.0291311
0.029306909 -0.054591499 0.070407897
0.055164654 -0.039306473 0.0230432
0.059804589 -0.056325153 -0.0553452
-0.044439863 0.025407683 -0.00291875
-0.16142528 0.15548278 -0.035515301
0.051722541 -0.069176279 -0.0187032
0.031916242 -0.006240326 0.023505401
0.060850099 -0.050538965 -0.037597399
0.050714724 -0.025924841 0.0315907
-0.0054421276 -0.041610222 0.069079198
-0.14746372 0.12591986 -0.028474901
0.033473089 -0.035775207 0.069183603
0.037972491 -0.068065487 0.037358198
0.054861754 -0.034567915 0.020102801
0.053763326 -0.063749418 -0.0112061
-0.10092134 0.1061827 -0.031468298
0.044453003 -0.052687287 0.056219801
-0.15502301 0.16471699 -0.048485301
0.02005849 -0.0062680501 0.058512598
