# .PCD v0.7 - Point Cloud Data file format
VERSION 0.7
FIELDS x y z
SIZE 4 4 4
TYPE F F F
COUNT 1 1 1
WIDTH 1407
HEIGHT 1
VIEWPOINT 0 0 0 1 0 0 0
POINTS 1407
DATA ascii
 -0.000805631 0.140781 -0.0332946
 -0.00634938 -0.0533504 0.0684525
 0.00917818 -0.100254 0.00394699
 -0.00639398 -0.0438881 0.0653494
 0.00416808 -0.108798 -0.0330144
 0.00160775 -0.055995 -0.0300248
 -0.0332537 -0.0784472 0.0760864
 0.00722469 -0.0803548 -0.0519454
 -0.00375353 0.184736 -0.037418
 -0.00197244 0.195492 -0.0405779
 -0.016405 -0.00168234 0.00248483
 0.00980918 -0.0924479 0.00143042
 -0.00685143 0.10009 -0.0202087
 -0.0167312 -0.0702251 0.074008
 0.00289464 0.128413 -0.0391771
 0.00289842 0.182124 -0.0560484
 0.00290738 -0.105485 0.0354054
 0.0228658 -0.0743197 0.0454802
 0.0217116 -0.0632593 0.0417016
 0.0101539 -0.0638531 -0.00776348
 -0.00379059 0.0707763 -0.0207919
 -0.00091897 0.066169 -0.0291521
 -0.00137384 0.0928273 -0.0277695
 0.00175513 0.109942 -0.0433099
 0.00227848 0.185365 -0.0469556
 -0.0020957 0.218261 -0.0574324
 0.0147033 -0.0958229 0.0322568
 0.00257508 0.194833 -0.0502241
 0.0124352 -0.0488129 0.0275736
 0.0122983 -0.0842331 0.00881293
 -0.00271684 -0.018261 -0.0121478
 -0.00232622 0.0368226 -0.0298369
 -0.017021 -0.0652013 0.0724467
 0.00266048 -0.107912 0.0161389
 0.0166011 -0.0924054 0.0214529
 -0.00623721 0.0552754 -0.0156921
 -0.00502631 0.173936 -0.0334299
 -0.00559843 -0.0559106 0.0691325
 0.00945257 -0.0499724 0.00783095
 0.00823216 -0.105229 -0.024323
 0.0227846 -0.0710377 0.0442459
 -0.00609571 -0.0185047 -0.00202841
 -0.0195588 -0.0963996 0.0724746
 -0.014174 -0.0586733 0.070265
 -0.0113956 -0.0587156 0.070163
 0.0211044 -0.0786592 0.056927
 -0.00430126 -0.041671 0.00517553
 0.0149713 -0.0638938 0.0120952
 0.00556868 -0.059824 -0.0288348
 -0.0420279 -0.0713097 0.0740883
 3.03239e-05 0.0789083 -0.0332063
 -0.0195969 -0.0711994 0.0743889
 0.0166322 -0.0651054 0.0622362
 -0.00104195 0.0180314 -0.0235903
 -0.012804 0.205648 -0.0338044
 -0.0254988 0.063195 -0.00823712
 -0.0051845 0.0103466 -0.0113378
 0.0101871 -0.0782262 -0.0326326
 -0.0150482 0.215367 -0.0368169
 -0.00549448 0.0086754 -0.0107111
 0.00378124 0.16697 -0.0510074
 -0.00563826 -0.0148692 -0.0030818
 -0.0143483 0.0709666 -0.0106946
 -0.00778459 0.0445955 -0.0122592
 -0.0308514 -0.0772485 0.0763688
 -0.0251844 -0.0773587 0.0761318
 0.012152 -0.0892552 -0.0193772
 0.00912277 -0.0785619 -0.0227235
 -0.00301071 0.124665 -0.0276178
 -0.00369877 0.216909 -0.0470502
 0.00293539 0.197171 -0.0606238
 0.00759235 -0.0832947 0.0685669
 0.00843501 -0.0707738 -0.00508705
 0.0117223 -0.0887294 -0.039078
 -0.000909418 0.0966242 -0.0288866
 -0.000126719 0.0813703 -0.0335352
 -0.0224622 -0.0960845 0.0721624
 0.00272904 0.14043 -0.0428182
 0.0163336 -0.0629885 0.0617639
 0.0199489 -0.087313 0.0396297
 0.0164781 -0.0544212 0.0295248
 -0.00616181 0.00264502 -0.00866848
 0.0118762 -0.0859532 -0.0302046
 -0.0171669 -0.0163192 0.00744501
 0.0206833 -0.0580099 0.0503055
 0.00564116 -0.106708 0.00610191
 0.00806303 -0.100407 -0.00576049
 0.0120331 -0.0583252 0.000906378
 -0.00232305 0.0408555 -0.0306778
 0.000591397 0.115851 -0.0344888
 -0.0171196 -0.0394515 0.0645576
 0.0201494 -0.0857688 0.0492488
 -0.00105749 -0.115581 -0.030785
 -0.0153782 -0.0630874 0.0717146
 -0.0146966 -0.0407697 0.0647874
 0.00194794 -0.0893058 0.0701903
 0.00800267 -0.0985757 0.0532897
 -0.00443433 -0.114524 -0.00130588
 -0.00568295 -0.0129782 -0.00360784
 0.00975786 -0.0922402 -0.00806463
 -0.00167346 0.0907587 -0.0268195
 -0.0071793 -0.0532987 0.0689683
 0.0152911 -0.0579473 0.0603769
 -0.00889614 -0.026804 0.000950307
 0.0199974 -0.0575569 0.0403994
 -0.00167869 -0.115526 -0.0205752
 -0.00613432 0.0543991 -0.0152813
 0.000586644 0.109519 -0.0327331
 -0.00558941 0.173502 -0.0331388
 0.00266047 0.131501 -0.0395072
 0.00504458 -0.105443 0.0259306
 0.00411062 -0.107729 -0.00323385
 -0.002234 0.0066483 -0.0296783
 0.0189174 -0.0848603 0.0191301
 -0.00333591 -0.0406159 -0.0146495
 -0.00222033 -0.0136495 -0.0130619
 0.00543146 -0.109074 -0.0227158
 0.00588787 -0.0558863 -0.0194775
 0.00869305 -0.071355 -0.0245275
 -0.0174333 0.206664 -0.0338392
 -0.0226325 -0.0717905 0.0749544
 0.00221205 0.148879 -0.0449681
 0.0121542 -0.0989426 0.0240582
 0.00271372 -0.0481958 -0.00224888
 0.0145407 -0.0562311 0.0102017
 -0.00052914 0.216569 -0.0568607
 -0.0171315 -0.00942504 0.00522682
 -0.0111473 -0.0357393 0.00388631
 -0.0095949 0.0344048 -0.00881284
 0.0104719 -0.0801877 -0.0315259
 0.00627543 -0.078254 -0.0522537
 -7.21365e-05 0.207112 -0.0436636
 0.0098134 -0.0542039 -0.000276625
 -0.000651747 0.0710011 -0.0300972
 -0.0035073 0.216602 -0.0464697
 -0.00220092 -0.0116332 -0.0138898
 -0.002506 0.0103554 -0.020747
 0.0203165 -0.0568874 0.050113
 0.00145958 -0.110445 -0.00197178
 -0.00146462 -0.114641 -0.0105999
 0.0129548 -0.0927184 -0.0175954
 -0.00299542 0.0350778 -0.0186819
 -0.0140721 0.207215 -0.0338813
 0.0132213 -0.0913137 0.0610887
 0.00905533 -0.0701219 0.00465944
 0.0110538 -0.0930299 0.0619615
 0.0227036 -0.0710592 0.0546245
 -0.00781196 0.0478437 -0.0126002
 -0.00305934 0.0323196 -0.0179172
 -0.0107736 0.155784 -0.0273763
 0.000277981 -0.0900214 0.070834
 0.0190145 -0.0551001 0.0398208
 -0.011568 0.132165 -0.0196342
 0.0224849 -0.0785027 0.0472024
 -0.00290294 -0.0412974 -0.00437319
 -0.00985882 0.0334594 -0.00831148
 0.0149997 -0.0586338 0.0111584
 -0.00402153 0.0774211 -0.0222064
 -0.00153568 0.137149 -0.0311716
 -0.030368 -0.0229989 0.00975773
 -0.0274607 -0.0229822 0.0100002
 0.0144689 -0.071118 0.0647728
 -0.024693 -0.0229802 0.00980487
 -0.0219148 -0.022974 0.00967047
 0.0169441 -0.0864872 0.0596021
 0.0156129 -0.0557683 0.0205435
 0.00256819 -0.0990923 0.0636636
 0.0122363 -0.0994411 0.0143673
 -0.00394563 -0.000596523 -0.0170292
 -0.016829 -0.0957647 0.0730338
 -0.00488921 0.182513 -0.0358085
 -0.0139966 -0.0959359 0.0728309
 -0.0114043 -0.0956389 0.072686
 0.00346501 0.173589 -0.0529175
 -0.00658236 -0.047515 0.0671124
 -0.00644529 -0.0193266 -0.00134313
 -0.0455033 -0.070793 0.0747899
 0.00132988 0.10176 -0.0398548
 -0.0165374 0.00540996 0.000999153
 0.00820537 -0.0782704 -0.0122125
 0.00321172 -0.107193 -0.0424686
 0.0209014 -0.0839769 0.0293043
 -0.0108244 0.0263411 -0.00580028
 -0.00247937 -0.0425586 -0.0137327
 -0.010069 0.0855676 -0.0145235
 -0.00811967 -0.0516442 0.0689113
 0.00629725 -0.105655 -0.032961
 -1.94013e-05 0.161105 -0.0384814
 -0.011914 -0.0534304 0.0691656
 0.0195297 -0.0559132 0.0402462
 -0.00281559 0.0408093 -0.0202072
 -0.0199109 -0.0657284 0.0731591
 0.00221527 0.117623 -0.044893
 0.00871082 -0.0776313 -0.0223051
 -0.0110659 -0.0451673 0.0669723
 0.0121057 -0.0497845 0.0585363
 -0.00917704 0.0419173 -0.0104561
 -0.0194189 -0.0580794 0.0710504
 -0.0166206 -0.0581095 0.0707227
 0.00384071 0.163281 -0.0490105
 -0.00901015 -0.046985 0.0673207
 0.0115979 -0.0562649 0.000662982
 -0.0126641 0.0779654 -0.0120631
 0.00656775 -0.107481 -0.022754
 -0.0226725 -0.0703645 0.075068
 -0.018407 -0.0156328 0.00776067
 0.0212093 -0.071038 0.0253312
 -0.0253326 -0.0716415 0.0753932
 0.00196655 0.133486 -0.0499143
 0.00137462 0.175441 -0.0429737
 0.0152038 -0.0653685 0.06317
 0.0200288 -0.0853393 0.0499261
 0.00664544 -0.0413837 0.0356629
 0.0100513 -0.0967997 0.00361425
 -0.00345603 0.0813813 -0.0232094
 0.00245307 0.196296 -0.0494677
 0.00324611 0.202663 -0.0618885
 -0.0102376 0.0361869 -0.00858936
 0.00967194 -0.0795755 0.0679866
 -0.0224362 -0.00957966 0.00607616
 -0.0195533 -0.00925791 0.00582013
 0.00873193 -0.0557599 -0.00941032
 -0.00295413 0.127142 -0.0275671
 -0.0226228 -0.0655107 0.0735596
 0.0199343 -0.0878271 0.0306585
 -0.017106 0.0707802 -0.00989836
 -0.00161535 0.147845 -0.0342683
 0.0130734 -0.0712116 0.0655716
 0.0130929 -0.0959198 0.0435034
 0.00801685 -0.0765249 0.00710681
 -0.000791162 0.0558566 -0.0347431
 0.00573377 -0.0836439 0.0693619
 0.0151334 -0.04893 0.0385654
 0.0130475 -0.0957711 -0.0261568
 0.000773653 -0.109148 -0.051569
 0.0100577 -0.078167 -0.0414778
 -0.0033543 -0.0178404 -0.0212806
 0.00537978 -0.0555216 -0.019108
 -0.00185226 0.0259351 -0.0351707
 0.00671843 -0.0890605 -0.0581593
 0.00256877 0.127767 -0.0375483
 0.0218776 -0.0781517 0.037723
 -0.00313793 -0.0192507 -0.0208592
 -0.00129369 0.018123 -0.0225298
 -0.0116556 0.157217 -0.0272709
 0.00951034 -0.0773962 0.0674553
 0.000632837 -0.106358 0.0365988
 -0.0282694 0.0630112 -0.0073784
 -0.00343154 0.00546497 -0.0188255
 0.012077 -0.0959921 -0.0159583
 -0.00198749 0.054365 -0.0240024
 -0.00799668 0.166449 -0.0302661
 -0.0171499 -0.0526236 0.0695623
 -0.0140757 -0.0521327 0.069329
 0.00490887 -0.0419684 0.0164687
 -0.0139472 0.0114268 -0.000763595
 -0.00273877 -0.0195101 -0.0108983
 -0.00357158 0.00285786 -0.0177004
 -0.0105062 0.0932273 -0.0165744
 0.0106906 -0.0970654 -0.0356552
 -0.0301564 -0.00106168 0.00349542
 0.0206576 -0.0843174 0.039786
 0.00128968 0.137829 -0.0504563
 0.0202431 -0.0859494 0.0405661
 0.0065771 -0.0419466 0.0262227
 -0.0121534 0.0194806 -0.00294021
 0.0216105 -0.0792854 0.0282666
 -0.00840916 0.101072 -0.0191673
 -0.0148233 -0.0473177 0.0679691
 -0.00306526 0.035821 -0.0183943
 -0.0248776 -0.0162996 0.00848386
 -0.00490846 -0.0363902 -0.00504932
 0.00302169 -0.107228 -0.0422368
 -0.0203601 -0.0615447 0.0723749
 0.00397523 0.166363 -0.0598329
 0.00618225 -0.0440006 0.0569793
 0.0198581 -0.0859167 0.0502026
 0.0153974 -0.0950688 0.033323
 0.00806837 -0.0796972 -0.0111411
 -0.0245486 -0.00854766 0.00592455
 0.000222325 0.0859959 -0.0343112
 0.00533676 -0.10003 0.0548011
 0.00939612 -0.0468226 0.0580597
 -0.0146574 0.0123025 -0.000594944
 0.00713561 -0.0782746 -0.001674
 -0.000225961 -0.0541329 -0.0291823
 -0.00320995 0.126465 -0.0270783
 -0.0131723 -0.0438639 0.0669037
 0.0168872 -0.0861072 0.0601545
 0.0151517 -0.0553102 0.0210698
 0.0204519 -0.066553 0.024562
 -0.000727087 0.0721006 -0.0299092
 0.00104815 0.0939736 -0.0364602
 -0.0195528 -0.00208592 0.00363535
 -0.00166216 0.0331035 -0.027172
 -0.0108484 0.138888 -0.0213868
 -0.00325805 0.0860643 -0.0240572
 0.00402123 0.207032 -0.0626777
 -0.0359215 -0.0702717 0.075077
 -0.0232142 -0.0703939 0.0751735
 -0.0228984 -0.0591546 0.0719949
 -0.0104807 -0.0484921 0.0681435
 0.0101361 -0.0798891 0.00876346
 0.00863236 -0.0712222 -0.0238093
 0.0105477 -0.0802145 -0.0406192
 -0.000778943 0.0632107 -0.0368295
 -0.000220254 0.104943 -0.0303333
 0.000378728 0.116156 -0.0338194
 0.00858821 -0.103611 0.0164241
 -0.00642589 -0.00011009 -0.00679475
 0.0039991 -0.101871 -0.0535949
 -0.0202196 -0.0401494 0.0659202
 0.00885187 -0.0781152 0.0680138
 -0.00287786 -0.0211401 -0.0196384
 -0.00407037 0.0803477 -0.022057
 0.00680028 -0.0989627 -0.0444906
 -0.0200044 -0.0526666 0.0700488
 -0.0176541 -0.0526927 0.0699413
 0.0128741 -0.0975968 0.0344763
 0.00829108 -0.0556619 -0.00853139
 -0.000515267 -0.0538846 -0.029072
 -0.00116745 0.0632004 -0.0269149
 -0.0254887 -0.0653575 0.0739752
 0.0216918 -0.0635804 0.0535149
 -0.00263412 -0.00904113 -0.0136336
 0.0110564 -0.0993841 -0.0147201
 0.0134026 -0.0926849 -0.0269072
 -0.0193085 -0.0558109 0.0706648
 0.00118534 0.138407 -0.0505193
 -0.0273439 -0.00126487 0.00403485
 -0.0214937 -0.00129002 0.00375164
 0.00579019 -0.104869 0.0269493
 0.00674 -0.0857471 -0.0587093
 0.0210403 -0.0772864 0.0575906
 0.000693679 0.118103 -0.0339726
 0.0031492 -0.0852781 0.0703819
 -0.0271806 -0.0154246 0.00819275
 0.0130169 -0.0524737 0.0597442
 -0.0209812 -0.0153859 0.00843927
 -0.0280575 -0.0712225 0.0756386
 -0.000158399 0.165234 -0.0392445
 0.0100169 -0.0852479 0.000774384
 0.000147492 -0.114395 -0.029803
 0.00919589 -0.0677915 -0.0147035
 0.00937617 -0.0774187 0.0677548
 0.0223875 -0.0710837 0.0556133
 -0.0232477 0.155707 -0.026281
 0.0102228 -0.0782802 -0.0313145
 0.0120736 -0.0482203 0.0289743
 0.0191124 -0.0794177 0.0186984
 0.0115012 -0.0621112 0.00309914
 -0.0072325 0.056933 -0.0147156
 -0.000112578 -0.0534331 -0.0289243
 0.00123455 -0.111035 -0.0406247
 -0.0138139 0.132259 -0.0186581
 -0.0451155 -0.0646975 0.0738248
 -0.0421624 -0.0648429 0.0736065
 -0.00125718 0.0634257 -0.0267913
 -0.036484 -0.0649614 0.0739247
 -0.00964618 0.165038 -0.0294199
 -0.00278383 0.1983 -0.0398597
 0.0136333 -0.0585297 0.0620351
 0.00833932 -0.0744638 0.00746593
 -0.0193291 0.0710608 -0.00929663
 -0.00314324 -0.0240858 -0.0186761
 0.00927845 -0.0704522 -0.0334927
 0.00361376 0.198765 -0.0596436
 0.0121006 -0.0708875 0.066037
 0.0141137 -0.0597876 0.0620823
 -0.0020418 -0.0428843 -0.0025332
 0.021804 -0.0781083 0.0284259
 -0.0170622 -0.0459566 0.0679399
 0.0150158 -0.0925931 0.0526922
 0.014729 -0.0484379 0.0388276
 -0.00310408 -0.0267349 -0.0177116
 -0.00147083 0.0873933 -0.044258
 -0.00634921 0.0619311 -0.0163697
 -0.0336431 -0.0706884 0.0756682
 -0.0308194 -0.0709907 0.0758307
 -0.000720575 0.0753518 -0.0401874
 -0.0217674 0.0056026 0.00195995
 -0.0190055 0.00553483 0.0016374
 0.019184 -0.0888375 0.0418001
 -0.00406271 -0.0252232 -0.00807872
 -0.004224 -0.0268295 -0.00776887
 -0.0234354 0.155911 -0.0263589
 -0.00577398 0.118771 -0.024247
 0.00655267 -0.0915636 -0.056804
 0.00197385 0.125024 -0.0359805
 -0.00315014 -0.0895475 0.0718399
 -0.00107601 0.0265674 -0.0249035
 -0.0395099 -0.0643934 0.0739405
 -0.00667852 0.116906 -0.0235794
 0.00378332 0.16767 -0.0499144
 -0.00147666 -0.0453575 -0.0117563
 -0.0179332 0.130986 -0.0179905
 0.001049 -0.0635256 -0.0454666
 0.00157952 0.181644 -0.0443869
 0.000317067 -0.0468468 -0.0114146
 0.00180139 -0.106682 -0.0517579
 -0.0112753 0.140374 -0.0212418
 -0.0249422 -0.00194383 0.00412151
 0.0157083 -0.0880257 0.0120696
 0.00201254 -0.0709417 -0.0530529
 0.00887182 -0.0719265 -0.00335008
 -0.00400136 0.0253576 -0.0142584
 0.00815862 -0.0994121 0.0455212
 -0.0106304 0.147078 -0.0231518
 -0.00484335 0.190949 -0.0373731
 -0.027984 0.00449681 0.00239551
 0.0222602 -0.0634367 0.0437455
 -0.0120053 0.0268226 -0.00487977
 0.0164089 -0.0659313 0.014949
 0.00653705 -0.105946 -0.0122923
 -0.00389515 -0.055608 -0.0380031
 0.00486378 -0.0799846 -0.0599634
 0.0176266 -0.0509136 0.0500453
 0.0222166 -0.0710269 0.0360855
 0.0094316 -0.0712975 -0.0132296
 0.00595409 -0.106935 -0.0314885
 -0.0225597 0.0706351 -0.00853378
 -0.00687528 -0.00440127 -0.00489262
 0.00174408 0.105554 -0.0396137
 0.0156084 -0.086777 0.0613734
 -0.00391981 -0.00388074 -0.0246231
 -0.000450641 0.0557789 -0.0335181
 0.00711869 -0.0424352 0.0270773
 0.00850451 -0.0712813 -0.00341427
 -0.00385775 -0.00532568 -0.0241565
 -0.000696257 0.0542126 -0.0332365
 0.00246306 0.124649 -0.0458343
 0.0019518 0.188593 -0.0463268
 0.00391223 0.157453 -0.0560459
 -0.00752269 -0.0196837 0.000221997
 -0.00462921 0.0726553 -0.019208
 -0.0221824 -0.0384841 0.0659914
 0.0133376 -0.0649856 0.0642855
 -0.0248861 0.00536615 0.00225002
 0.0128264 -0.0982686 0.025348
 -0.0019419 0.0555145 -0.0237596
 -0.0252137 -0.0618873 0.0734722
 0.00193566 0.148309 -0.0429689
 -0.00133812 -0.0884039 0.0718348
 -0.0118487 -0.033928 0.00467774
 -0.00629954 0.0100846 -0.00902975
 0.00235891 0.135481 -0.0392436
 -0.0197521 0.131946 -0.0179466
 -0.0337978 -0.0649951 0.0745622
 0.00975616 -0.0888996 -0.0471428
 0.00276206 0.189196 -0.0560189
 0.0229577 -0.0674286 0.0455227
 -0.0125475 0.0338285 -0.00666678
 0.00601402 -0.10161 -0.0429835
 -0.0100684 -0.0929587 0.0735367
 -0.00173953 0.0452738 -0.0302964
 -0.000421509 0.109242 -0.0305622
 0.00271085 0.201736 -0.0502753
 0.00232425 0.186022 -0.055084
 -0.0131936 0.078964 -0.0114184
 0.00504157 -0.0978895 -0.0543888
 -0.0018613 0.0964959 -0.0268817
 -0.00238895 0.204521 -0.0410163
 0.00179532 -0.0410993 0.0569048
 0.0132607 -0.0630887 0.0638927
 0.0219508 -0.0623544 0.0435854
 0.0176095 -0.0557959 0.0317234
 -0.00682434 -0.00975144 -0.0026913
 -0.00647844 -0.063189 -0.0552452
 -0.0139276 0.157444 -0.026325
 -0.0216416 -0.0504741 0.0699132
 -0.0121882 0.0855388 -0.0129366
 0.0075864 -0.097882 -0.0440156
 0.00263587 0.131431 -0.0474514
 0.00317159 0.191365 -0.0567568
 0.0082036 -0.0636988 -0.0253419
 0.00316072 0.156497 -0.0458449
 0.0170468 -0.0842127 0.0609178
 0.00314738 -0.0385106 0.0263676
 0.00979227 -0.060851 -0.0163965
 -0.00104138 0.0253267 -0.0236796
 0.0118334 -0.0886946 -0.0172548
 -0.0194324 -0.0451869 0.0683804
 -0.00396729 0.0264534 -0.0142436
 0.0121641 -0.0902437 -0.0165068
 0.0102537 -0.0636993 -0.0151311
 -0.00622907 0.0640922 -0.0162576
 -0.00179154 0.0441169 -0.0294584
 -0.00162017 0.156477 -0.0358236
 0.0194216 -0.0558912 0.0520426
 -0.00542471 -0.0342623 -0.00483614
 -0.0112628 0.148583 -0.0230795
 -0.00304888 0.214503 -0.0441287
 0.0194048 -0.0791987 0.0595525
 0.0170969 -0.0928699 0.0340152
 -0.0126303 0.0264553 -0.00421533
 -0.00343077 -0.00439429 -0.0142424
 0.010519 -0.0637761 -0.00540617
 -0.00496615 -0.117432 -0.0575412
 -0.00519866 0.0705165 -0.0183368
 0.0174101 -0.0912906 0.0435708
 0.0166958 -0.0495619 0.049722
 0.00873232 -0.0717241 0.00723425
 0.0108414 -0.0855457 -0.0180883
 0.00863808 -0.0635285 -0.0253557
 0.00324306 0.156965 -0.0458373
 -0.0168455 0.0124128 0.000164866
 0.00970411 -0.0934102 -0.0056473
 -0.00171465 0.100801 -0.0278034
 -0.0310024 -0.0652812 0.0746391
 0.00611672 -0.09613 0.0649762
 -0.000378251 -0.10784 0.0189255
 0.0216137 -0.0631507 0.0542745
 0.000838816 0.180599 -0.0432301
 0.00220819 0.149461 -0.0530525
 0.00981873 -0.0713642 0.0670644
 -0.0229346 -0.0465417 0.0689292
 -0.00650734 -0.0403021 0.00734678
 0.0157397 -0.0490139 0.0399513
 0.0212155 -0.0641432 0.0348397
 -0.00681403 0.0629119 -0.0157686
 -0.00192198 -0.114109 -0.0587411
 -0.0282634 -0.0588787 0.0730111
 -0.00343359 0.00887054 -0.0181764
 0.00364107 -0.0778733 -0.0599386
 -0.0307034 0.00490087 0.00291643
 0.0219034 -0.078198 0.0395683
 0.0215781 -0.067139 0.0357443
 -0.000682339 0.0730223 -0.0388069
 0.0191542 -0.0864156 0.0519454
 0.0125805 -0.0892459 -0.0268862
 0.00762273 -0.071756 -0.0419703
 -0.0056209 -0.0898092 0.0727423
 0.0196236 -0.0593932 0.0335672
 0.0197487 -0.0636637 0.0247177
 -0.00291762 -0.00712252 -0.0131838
 -0.0230331 0.165205 -0.0280356
 -0.0281944 -0.0650412 0.0745902
 0.00278987 0.204581 -0.0508524
 -0.0279044 0.0708918 -0.0079515
 0.0155262 -0.085299 0.0119538
 -0.00561848 0.0179447 -0.0111119
 -0.0126571 0.0931126 -0.0150737
 0.00193708 -0.0638069 -0.0445704
 -0.0133341 0.163615 -0.0275934
 -0.00225246 0.0996167 -0.0269611
 0.00240989 0.117051 -0.0428863
 0.0138579 -0.0951575 0.0446554
 -0.0036054 -0.0362681 -0.0136963
 -0.00875182 0.0539058 -0.0126535
 0.0101371 -0.0627619 -0.0152923
 -0.000628561 0.10904 -0.0301382
 -0.00155881 0.157652 -0.0358952
 0.000744924 0.212816 -0.0532625
 0.0022942 -0.0833902 0.0706633
 -0.00064528 -0.0394948 0.056641
 -0.003087 -0.0266657 -0.0167058
 0.0120139 -0.0555961 0.00244123
 -0.0103074 0.101 -0.0175937
 0.00133082 -0.108663 -0.0500637
 -0.0253846 -0.0585874 0.0726457
 -0.00648765 0.182413 -0.0337915
 0.00388457 0.15798 -0.0558413
 -0.00756204 0.00255835 -0.0059644
 0.0163262 -0.0631545 0.0149156
 -0.00623569 0.0135192 -0.00948367
 -0.00347133 -0.116676 -0.0377753
 0.00381206 0.178834 -0.0622692
 0.0117984 -0.0907336 0.0634364
 -0.000550389 0.0783193 -0.0301982
 -0.00118886 0.104375 -0.02872
 0.00131285 0.100026 -0.0373782
 0.0155949 -0.0929651 0.014202
 -0.0352075 -0.0630689 0.0742554
 -0.00223145 0.140755 -0.0303155
 0.00185677 0.147078 -0.0424041
 0.0103219 -0.100748 0.0267802
 0.0103047 -0.0795215 -0.0295298
 -0.00745416 0.117308 -0.022693
 0.00630125 -0.0930623 -0.054961
 0.0144715 -0.0959997 0.0153527
 -0.00370418 -0.0345636 -0.0143979
 0.0105438 -0.0994691 0.036397
 0.0218481 -0.0773458 0.0291195
 0.00747155 -0.0799761 0.000309616
 0.00974776 -0.04911 0.0104792
 -0.00480367 0.195837 -0.0374313
 -0.00703827 0.0642966 -0.0154522
 -0.00310659 0.134376 -0.028129
 -0.002753 -0.0123262 -0.0110139
 0.0118702 -0.085471 -0.0278476
 0.000427723 0.0909147 -0.0342248
 0.000385195 0.177342 -0.0418168
 0.0217629 -0.0682555 0.0564633
 0.0198609 -0.0572138 0.0530299
 0.00157416 -0.0466881 -0.000117302
 -0.0229909 0.147084 -0.0222785
 -0.00384699 -0.115888 -0.0576813
 0.0150639 -0.0477524 0.0497917
 -0.00340833 -0.00887525 -0.0221159
 -0.017276 0.156684 -0.0253381
 0.00427216 -0.0776294 0.0695206
 -0.00258097 0.0537131 -0.0222782
 -0.0243239 -0.0526837 0.0712677
 0.00170548 0.108684 -0.0397318
 0.00167356 0.194797 -0.0470939
 0.0106198 -0.0442314 0.0387768
 0.0130331 -0.0490041 0.0300947
 -0.000948906 0.0742334 -0.0287238
 0.0223637 -0.078812 0.0499675
 -0.00583358 0.0174528 -0.0109112
 0.00816754 -0.0796878 -0.0491898
 -0.00841345 0.172479 -0.0300036
 -0.00270262 0.14631 -0.0319075
 0.000507116 -0.0837455 0.0713172
 0.0232648 -0.0710388 0.047234
 -0.016171 0.0788296 -0.0102849
 0.00607897 -0.0627058 -0.0347968
 0.00338413 0.179718 -0.0619439
 0.0100104 -0.0840599 0.00189763
 0.0165698 -0.063962 0.0152144
 0.00975475 -0.0883498 -0.00667694
 0.0112985 -0.0960171 0.0552756
 0.00290206 -0.104857 0.0381494
 0.0103 -0.0454684 0.0293494
 0.0127694 -0.0808892 0.0110451
 0.0109733 -0.0811898 -0.0386961
 0.010041 -0.0857115 -0.0469826
 0.00287583 0.181207 -0.052792
 0.0216294 -0.0711002 0.0571335
 0.0209029 -0.0845033 0.0318182
 0.00973204 -0.0912011 -0.00591478
 -0.0254996 -0.0524594 0.0711916
 0.00189124 0.109228 -0.0396063
 -0.0207428 0.0132276 0.00106633
 -0.0183987 0.0128969 0.000636578
 0.000697017 -0.0621689 -0.04471
 -0.00118567 0.0481751 -0.030333
 -0.00118297 0.0920423 -0.0439413
 0.00294904 0.156364 -0.0447191
 0.00266512 0.21115 -0.0619903
 0.00907984 -0.0725672 -0.0118625
 -0.00371791 0.0403131 -0.0176501
 0.0111012 -0.0813555 -0.0284845
 -0.00358012 -0.0362196 -0.0130755
 -0.0137744 0.140261 -0.0198059
 -0.000397786 0.0783093 -0.0398176
 -0.0143596 0.0194693 -0.00137645
 -0.0116541 0.0416851 -0.00830823
 -0.00286569 0.0483694 -0.0199934
 -0.00403869 0.085749 -0.0222699
 -0.0392743 -0.0585908 0.073409
 -0.0307524 -0.0581371 0.0735634
 0.00211376 0.140461 -0.0396188
 0.00288561 0.125157 -0.0446979
 0.00387053 0.158017 -0.0553209
 0.00324111 0.206629 -0.0604638
 0.011442 -0.0520272 0.0612477
 0.0112621 -0.100858 0.0172068
 0.0105307 -0.0615631 -0.00530544
 0.0059928 -0.0547261 -0.0169677
 0.0117675 -0.0494413 0.020683
 0.018326 -0.0601421 0.0243872
 0.00806753 -0.0739602 -0.00131384
 -0.00132996 0.0140649 -0.029244
 -0.025459 -0.0392295 0.0672098
 -0.00131206 0.164347 -0.0372643
 0.0106936 -0.0549214 0.0625569
 0.02181 -0.0794096 0.0400908
 -0.0282284 0.085672 -0.0120135
 -0.00492094 -0.0269177 -0.00604388
 -0.0108337 0.0483104 -0.0100073
 -0.00448914 0.0324043 -0.0150762
 -0.0073072 0.118581 -0.0225735
 0.0067122 -0.0504912 0.00118181
 0.0112731 -0.0970328 -0.0135356
 0.00718415 -0.0775558 -0.0498503
 -0.0285076 -0.0535492 0.0719627
 0.00136708 0.14114 -0.0496643
 -0.015379 0.164112 -0.0270231
 -0.00270842 0.208091 -0.0414086
 -0.00517005 0.124877 -0.0248716
 0.00180614 0.131755 -0.0364879
 0.00792052 -0.106057 -0.0205015
 0.0119714 -0.044724 0.0492417
 0.0199952 -0.0847562 0.0223559
 -0.0195721 0.0782371 -0.0096167
 0.0116385 -0.0638549 0.0652845
 -0.00293659 -0.115128 -0.00763276
 -0.00036566 0.0631952 -0.0346101
 -0.00296445 0.142603 -0.0300403
 -0.0279492 -0.0389516 0.0675413
 0.0102404 -0.0652175 0.0660692
 0.0200158 -0.0783238 0.0204987
 -0.0154547 0.0847343 -0.0116827
 0.00840852 -0.0545269 -0.00733092
 0.00798307 -0.072149 -0.0412901
 0.00188518 -0.107901 -0.0596754
 -0.0247695 0.0125609 0.0014545
 0.0222052 -0.0710226 0.0378695
 0.0203019 -0.0645307 0.0257484
 -0.00336108 -0.0183419 -0.0086908
 0.00252917 0.203968 -0.0497212
 0.0168954 -0.0924591 0.0246167
 -0.00212169 0.0617653 -0.0241759
 0.00680903 -0.0714542 0.0679175
 0.00901209 -0.0714871 0.0679166
 0.00919913 -0.100475 0.0374565
 0.013072 -0.0984381 0.0169441
 0.0230216 -0.0710578 0.0477251
 -0.00216188 -0.115906 -0.0373411
 -0.00340563 0.0102674 -0.0178113
 0.00602472 -0.0627831 -0.0343494
 -0.00497092 0.0240424 -0.0120934
 -0.00556062 -0.036921 -0.0027349
 0.0193861 -0.087132 0.0234758
 -0.0203594 0.146305 -0.0211591
 -0.00184549 0.0180711 -0.0201336
 -0.00356749 0.0447703 -0.0186069
 -0.0103534 -0.0228676 0.00267988
 0.00988922 -0.0712569 0.00857297
 -0.00211827 -0.116102 -0.0273977
 -0.00336184 -0.00559998 -0.0124554
 -0.000400811 0.173355 -0.0394568
 -0.0150741 -0.0355895 0.0066424
 -0.00314869 -0.115138 -0.0470896
 -0.0050021 0.198141 -0.0376444
 0.00104624 0.136093 -0.0575573
 -0.0147863 0.0932533 -0.0141834
 -0.0100893 0.104219 -0.0175324
 -0.00216009 0.00930125 -0.0270446
 0.0117448 -0.0857832 -0.0365846
 0.00861421 -0.0707648 0.0677707
 0.0166222 -0.0869762 0.0132671
 -0.0227431 0.139895 -0.019289
 0.00912426 -0.0717288 -0.0312738
 0.00858451 -0.0809376 -0.0483719
 0.0110469 -0.0969801 0.0465364
 -0.00824688 -0.0179944 0.00135347
 0.00856729 -0.0800575 -0.0189161
 -0.0106647 0.100913 -0.016908
 -0.0422846 -0.0584043 0.0738725
 -0.00458732 0.0858331 -0.0214992
 0.0123416 -0.0887433 -0.0354528
 -0.0366077 -0.0585463 0.0738337
 -0.0338117 -0.0585577 0.0738184
 0.0121843 -0.0926017 -0.0144709
 0.0052851 -0.10669 0.0100681
 0.0215972 -0.0711645 0.0282609
 -0.00202413 0.0404307 -0.0272296
 -0.0133674 0.0967767 -0.0152383
 -0.00237919 -0.056012 -0.0360853
 0.0124715 -0.0887964 -0.0257674
 0.00787424 -0.0715187 -0.0409704
 -0.00897014 -0.0892761 0.0736386
 0.000626475 0.184759 -0.0433216
 -0.00713699 0.00894076 -0.00705338
 -0.00360256 0.0331523 -0.034622
 0.00265771 0.119075 -0.0420197
 0.0226181 -0.0777732 0.0503601
 -0.0143152 0.0341219 -0.00531664
 0.00730446 -0.0782625 0.000814438
 -0.00186281 0.0358897 -0.02589
 -0.00203057 0.0628594 -0.0240244
 -0.00311676 0.10036 -0.0260157
 0.00815772 -0.0416645 0.0488392
 -0.0117318 -0.0267448 0.00426489
 -0.0017812 -0.115385 -0.0173035
 0.00833161 -0.0780113 -0.0189911
 0.00927094 -0.0711893 -0.0312674
 0.00170502 -0.069245 -0.051755
 -0.00875074 0.17354 -0.029741
 -0.0250078 -0.0452302 0.0698109
 0.00836995 -0.0497364 0.0612842
 0.00430125 -0.10555 0.0291946
 -0.0130668 0.0422126 -0.007449
 0.0103292 -0.0772405 -0.0392774
 -0.000674665 0.0815092 -0.0303342
 -0.0223133 0.0782859 -0.00928608
 0.0052067 -0.0544493 -0.0166963
 0.0216139 -0.0709088 0.0281419
 0.0123909 -0.0532554 0.0126877
 0.0088665 -0.0712442 -0.0212865
 0.00507648 -0.0737016 -0.0503941
 0.0182345 -0.0899987 0.0443225
 -0.0145774 0.026574 -0.00288349
 0.0113179 -0.0969241 0.00681159
 -0.01108 0.108061 -0.0185634
 -0.00263654 0.163164 -0.0359572
 0.00140232 0.136498 -0.037456
 -0.0177331 0.0847731 -0.0110518
 -0.00606331 0.0207323 -0.0106147
 0.0114578 -0.101045 -0.0216177
 -0.000455156 0.0709004 -0.0368042
 0.00281595 -0.0795194 0.0707387
 0.0171782 -0.089708 0.0545709
 0.0224185 -0.0787513 0.0507425
 -0.0119592 -0.0265674 0.00447854
 0.0203761 -0.0566461 0.0437788
 0.00540738 -0.108223 -0.0292096
 -0.00286484 0.0130131 -0.0182766
 -0.0157521 0.141085 -0.0192465
 -0.0199295 0.139536 -0.0186627
 0.00863169 -0.0788931 -0.0185724
 -0.00145467 0.0712147 -0.0266259
 0.00339365 0.163499 -0.0461201
 -0.00264223 -0.0836327 0.07223
 0.00921543 -0.0511259 0.0617469
 0.0189204 -0.077548 0.0605538
 -0.0174673 0.0191262 -0.00025335
 -0.0124682 0.10087 -0.0162421
 -0.00487933 0.215042 -0.0425688
 0.00338449 0.172998 -0.049348
 -0.00615051 -0.0351499 -0.0027554
 -0.0228534 0.0993123 -0.0156044
 0.00574666 -0.10847 -0.019201
 0.0125948 -0.0982904 0.027515
 0.0194139 -0.0873623 0.023697
 -0.000661179 0.174532 -0.0396214
 0.00283933 0.132775 -0.0461303
 -0.00716859 -0.0881544 0.0738076
 0.00143915 0.196551 -0.0465818
 0.00265661 -0.0774212 0.0702831
 0.0080584 -0.0422241 0.0391859
 -0.025611 0.085054 -0.0112668
 -0.00383775 0.0432824 -0.0175667
 -0.00355332 0.0339007 -0.0348172
 -0.033708 -0.0898671 0.0745535
 -0.0309444 -0.0900988 0.0743072
 -0.0280491 -0.0899939 0.0745306
 -0.0109173 -0.0899839 0.0743068
 0.00557394 -0.0458123 0.0605284
 -0.00454082 -0.0397087 -0.00129598
 -0.0281748 0.0944473 -0.0142466
 -0.0019585 0.010533 -0.0272266
 -0.0167229 0.165269 -0.0268303
 -0.00578488 0.198296 -0.0373024
 0.00324024 0.1738 -0.0594047
 0.0165236 -0.0853994 0.0134889
 -0.00362374 -0.019508 -0.00777778
 0.011879 -0.0636265 0.00622061
 -0.0171559 0.0933459 -0.0135486
 -0.00425792 0.00270581 -0.014654
 0.01404 -0.0469247 0.0409341
 0.0158389 -0.0556599 0.0237606
 0.000867799 0.0938554 -0.0336957
 0.000955626 0.111017 -0.049125
 -0.0191497 0.0196921 -4.10378e-05
 0.00686252 -0.0418769 0.0293783
 -0.004198 -0.000393271 -0.0139177
 0.00956778 -0.0876911 -0.00544557
 -0.0170507 0.148047 -0.021286
 0.00148812 0.101394 -0.0364197
 0.0181212 -0.0558402 0.0336308
 -0.0152312 0.14644 -0.0209033
 0.00413018 0.166206 -0.0564723
 -0.00855212 -0.000286579 -0.0035271
 -0.00545479 -0.0269154 -0.00518614
 -0.0195682 0.0858666 -0.0110614
 0.00750279 -0.0532704 -0.00673118
 -0.00397335 0.0435032 -0.0175015
 0.00882213 -0.0625567 -0.0236234
 -0.00523134 0.080988 -0.0196971
 3.02345e-05 0.0830125 -0.040196
 0.0137603 -0.0524749 0.0227157
 -0.00139669 -0.0664194 -0.0523234
 -0.00216164 -0.0707064 -0.0608948
 0.0177223 -0.0886759 0.0542679
 0.00291528 -0.107114 0.020082
 -0.010582 0.0559697 -0.0114593
 -0.00566553 0.0780321 -0.0187931
 0.00344156 0.166294 -0.0464534
 0.00323959 0.177141 -0.0503016
 0.00920105 -0.0595493 0.0648567
 0.0208511 -0.0639344 0.056458
 0.00330228 0.175529 -0.0497237
 0.00748782 -0.0498661 0.0620721
 -0.0287974 -0.0469505 0.0708638
 0.00101276 0.189803 -0.0441274
 -0.00250253 -0.0169448 -0.0182367
 0.000642702 0.188221 -0.0436367
 0.0201367 -0.0837774 0.0527956
 -0.00643118 0.0719801 -0.0165216
 -0.00365786 0.0941521 -0.0235972
 -0.012176 0.0487238 -0.00920191
 -0.0032603 0.00234491 -0.0243392
 -0.00403661 -0.0642728 -0.052861
 -0.000503555 0.094559 -0.0436584
 -0.0285741 0.117447 -0.0212029
 -0.00893845 0.11744 -0.0213275
 -0.0251246 -0.0906208 0.0748699
 -0.0300797 -0.05275 0.0728198
 0.00525776 -0.0994491 0.0577585
 -0.0167616 0.0347449 -0.00445792
 0.00236529 0.155429 -0.0431783
 0.00280033 -0.0963171 0.0667299
 0.00631201 -0.0480624 0.0615054
 -0.0203638 0.0927071 -0.0131218
 0.00994976 -0.0995941 -0.0117679
 0.0136543 -0.0926935 -0.0238003
 0.00220548 0.153951 -0.0427312
 0.00489102 -0.0713429 0.0687335
 0.0138782 -0.0866986 0.0638625
 0.0154845 -0.0915577 0.0554414
 0.015581 -0.0516452 0.0327934
 0.000950918 -0.111832 -0.00744155
 0.0220234 -0.0783409 0.031197
 0.0107568 -0.0988167 -0.0319114
 0.00186624 0.148132 -0.0508122
 0.00122157 0.212199 -0.051381
 0.00301294 0.196627 -0.0562819
 0.0187487 -0.0772988 0.0608148
 0.0114526 -0.0443487 0.0501748
 -0.0224897 0.019247 0.000445276
 0.0102402 -0.100164 -0.0311806
 -0.00166942 0.0320238 -0.0238341
 0.00218749 0.113452 -0.0394379
 0.000564277 0.131012 -0.0551845
 -0.00299034 -0.0399812 -0.0105979
 -0.00485997 0.0349118 -0.0146739
 0.013301 -0.0974344 -0.0220717
 0.000896409 0.127567 -0.0341
 0.00254051 0.208909 -0.050313
 -0.0218748 0.0866957 -0.0110171
 -0.00318369 -0.0146408 -0.00873962
 -0.0024863 -0.0193801 -0.0174214
 0.0100616 -0.0858524 -0.0457274
 0.00025484 0.18547 -0.0425311
 0.000924602 -0.0772169 0.0709337
 0.00771379 -0.104186 0.0197923
 0.0106079 -0.0715061 0.00923792
 -0.00207491 -0.114049 -0.0466887
 0.000819981 0.124416 -0.0333923
 -0.0166235 -0.0899197 0.0750467
 -0.0249012 0.0948639 -0.0137318
 -0.00362092 -0.0177938 -0.00758252
 0.00861119 -0.0709807 -0.010471
 0.0150369 -0.0542111 0.0237285
 0.00436658 -0.0708234 0.068984
 0.0159368 -0.0908167 0.0552536
 0.010032 -0.099731 0.0383103
 0.000485823 0.0938294 -0.0331108
 -0.00608827 -0.0835874 0.0730514
 0.0202904 -0.0858747 0.043724
 0.0217315 -0.0610195 0.0457762
 -0.00654572 -0.0349185 -0.00197396
 -0.00136369 0.11734 -0.0306309
 -0.00234945 0.165804 -0.0363072
 0.0219873 -0.077731 0.0413177
 -0.00302678 0.00321823 -0.0240636
 0.00392962 -0.107183 -0.0387287
 0.012066 -0.099844 -0.0213502
 -0.0308666 -0.051909 0.0726472
 -0.0223453 -0.0895771 0.0748522
 -0.00837818 0.189145 -0.0338902
 -0.0140664 -0.0896006 0.0746857
 0.0202394 -0.06111 0.0558128
 0.0149576 -0.0568287 0.0147973
 -0.02129 0.0951368 -0.0135708
 -0.000481188 -0.0481294 -0.0175673
 -0.0013459 0.0268124 -0.0217126
 -0.0056574 0.127882 -0.0242754
 0.0205862 -0.062367 0.0560794
 0.0171394 -0.0512766 0.0529487
 0.00948393 -0.0999775 -0.0110097
 -0.00379625 0.0500709 -0.0189606
 -0.00158937 0.0721514 -0.0264137
 0.00299476 0.12732 -0.0434397
 0.0133856 -0.0872 0.064214
 -0.0137287 0.101682 -0.0155808
 -0.00119849 0.0813732 -0.0291487
 0.00370249 0.206923 -0.0593736
 0.00983001 -0.0825899 -0.016903
 -0.000365719 0.0631729 -0.0333188
 0.00391686 0.166501 -0.0560708
 0.0069401 -0.0655406 0.0674014
 -0.0004462 -0.105623 0.040383
 0.0171067 -0.0811152 0.062336
 0.0106849 -0.0637345 -0.00270304
 -0.0194644 -0.0888207 0.074941
 0.00041084 -0.0781116 0.0712301
 -0.00915693 -0.00159568 -0.00242868
 0.00987884 -0.0786325 -0.027674
 -0.0339813 -0.0526433 0.0735445
 -0.00100857 -0.0793085 0.0716822
 0.00646925 -0.0425575 0.0201184
 -0.00433573 0.149139 -0.0307432
 0.00170365 -0.0965095 0.0671017
 -0.00694866 -0.0370734 0.0581136
 0.00788884 -0.05871 0.0652862
 -0.0181154 0.0331253 -0.00384662
 -0.000348926 -0.114646 -0.0163192
 0.0114737 -0.0974661 -0.0318431
 -0.000961632 0.180515 -0.0405761
 0.00300069 0.198371 -0.0560279
 0.00310849 0.198102 -0.0561587
 0.0100909 -0.0925576 -0.0432851
 0.0010674 0.212308 -0.0505911
 0.00844024 -0.0715891 -0.000135452
 0.00309536 0.12444 -0.0426469
 -0.0072217 -0.0854723 0.0737738
 -0.00290178 -0.114928 -0.00621867
 0.0132443 -0.0794917 0.0124255
 -0.000159368 0.0637641 -0.0331543
 0.0011871 0.145101 -0.0493886
 0.00948612 -0.102797 0.0200236
 -0.00550856 -0.116957 -0.0549631
 -0.000919297 0.0513606 -0.0291488
 0.0105215 -0.0857165 -0.0452452
 0.0200941 -0.0710139 0.0594878
 0.00151142 0.109221 -0.0375795
 0.00503808 -0.0460694 0.0611086
 -0.0181808 0.0350671 -0.00415438
 -0.000633568 0.085704 -0.0303557
 0.00161557 0.144879 -0.039396
 0.0201516 -0.0871471 0.0345925
 0.00725584 -0.0839748 -0.0558448
 0.00182708 -0.107536 -0.0483388
 -0.0246259 0.0198026 0.000731468
 -0.0255008 0.100894 -0.0153328
 -0.00283605 -0.0267693 -0.0141104
 0.00163968 0.142691 -0.0581026
 -0.00145732 0.117087 -0.0301201
 0.00999138 -0.0906649 0.065714
 0.019041 -0.0577615 0.0555032
 0.00566974 -0.106245 -0.00862512
 -0.0132443 0.107861 -0.0171301
 -0.00927535 0.189115 -0.0331262
 0.000448585 0.124974 -0.0327875
 -0.00741518 0.198504 -0.0360729
 0.00228909 0.156666 -0.0426652
 0.0148956 -0.0844196 0.0638116
 -0.0124322 0.0560732 -0.0105245
 -0.00159299 0.0250232 -0.0206331
 0.00103039 -0.109871 -0.0571249
 0.0220194 -0.0796106 0.0523838
 -0.00441709 0.00141191 -0.0131103
 -0.00581442 0.0280093 -0.0115972
 -0.0040248 0.0411436 -0.0358384
 0.0213917 -0.0633241 0.0373092
 -0.000592098 0.0550593 -0.0302261
 -0.0126391 0.172187 -0.0278201
 -0.0051427 0.134411 -0.0255634
 -0.031468 -0.0466367 0.0716849
 -0.00417385 0.156473 -0.0327826
 0.00730334 -0.104822 0.0107837
 -0.0175769 0.0408583 -0.00547072
 0.0173214 -0.0628781 0.0175364
 0.000336111 0.0868667 -0.0400875
 0.00338364 0.157164 -0.0527956
 0.0171743 -0.0793514 0.0625568
 -0.0068175 0.0722731 -0.0159048
 0.0224261 -0.0636109 0.0471192
 0.0122162 -0.0970072 0.00855139
 0.00544477 -0.0482696 0.00297913
 -0.00054422 -0.114953 -0.025575
 -0.00392336 -0.00450557 -0.0109901
 -0.00975758 0.18979 -0.0331358
 0.0154005 -0.0491977 0.0528812
 0.019952 -0.0629871 0.0272029
 0.0104691 -0.0854533 -0.0149687
 -0.0034779 0.000604391 -0.0228626
 0.00329021 0.190048 -0.0530151
 0.0198655 -0.0554106 0.0446046
 0.0222912 -0.0707846 0.0398857
 -0.00265747 0.0630168 -0.0226575
 0.00932686 -0.0741193 -0.0385267
 0.00543553 -0.0983598 -0.0606508
 -2.05338e-05 0.10255 -0.0452363
 0.00714655 -0.101668 -0.0396055
 -0.00442263 0.158442 -0.0329705
 0.00213028 -0.0713968 0.0696346
 0.017754 -0.0538792 0.0545383
 0.00933346 -0.0455408 0.0220439
 -0.0158373 0.0428472 -0.0063695
 -0.00598748 0.0268802 -0.0109904
 -0.00333136 -0.00410128 -0.0210017
 0.0077583 -0.0858256 -0.0548054
 -0.0103132 -0.0185263 0.00326341
 0.0175006 -0.0580661 0.025834
 -0.00600922 0.0257301 -0.0107665
 0.0117899 -0.084743 -0.0251997
 -0.00161812 0.0273939 -0.0309535
 -0.000669524 0.0540338 -0.0294353
 0.008112 -0.0990707 0.0486491
 -0.00897729 -0.00874448 9.02116e-05
 0.0214899 -0.0701812 0.0296268
 0.00777449 -0.0890418 -0.0536205
 -0.0101542 0.180758 -0.0303375
 0.00586247 -0.0646497 0.0676745
 -0.0185711 0.0272988 -0.00105003
 -0.013807 0.0491637 -0.00836498
 -0.00744806 0.0708944 -0.0152334
 -0.00976548 0.119381 -0.0206681
 -0.0208603 -0.0883686 0.0754839
 0.00111239 0.148303 -0.0398015
 -0.00249796 -0.0773262 0.0717735
 0.0196751 -0.0708942 0.0600609
 -0.0125334 -0.0229639 0.00469255
 0.0120014 -0.0980837 0.00902376
 0.0130619 -0.0618949 0.00748834
 -0.0030998 -0.115421 -0.0452757
 0.00953113 -0.0642298 -0.021751
 -0.000750512 0.0214087 -0.0291785
 0.00188634 0.204816 -0.0474392
 0.0200141 -0.0876225 0.0351784
 -0.00966454 -0.00383526 -0.00109076
 0.00586261 -0.105312 0.0011532
 -0.00497541 -0.116708 -0.0449119
 0.00936148 -0.100102 0.0394192
 -0.00953944 0.00554001 -0.0040552
 -0.00375144 -0.00965774 -0.00898543
 -0.0230375 0.172951 -0.0278276
 -0.00166915 0.0339449 -0.0233702
 -0.00246853 0.109057 -0.0271481
 -0.0085593 -0.0835913 0.0738008
 0.00311062 0.164263 -0.0445918
 -0.027411 0.0198645 0.00111279
 0.0215738 -0.0791653 0.0326976
 0.00318427 -0.0490966 -0.00655308
 -0.0170879 0.101031 -0.0147312
 0.0105754 -0.0895583 0.0657392
 -0.00974374 0.00278705 -0.0030171
 0.0202864 -0.0854543 0.0249465
 -0.00313577 -0.0285632 -0.0133448
 0.00738485 -0.0639311 -0.0315974
 0.00616337 -0.105046 -0.008843
 -0.0034952 0.0559071 -0.0202389
 -0.0139593 -0.088092 0.0752637
 0.0029462 0.132997 -0.0447719
 -0.00823422 0.0104303 -0.00542623
 0.00709365 -0.0800985 -0.0068149
 0.00686584 -0.0983663 0.0590578
 -0.00346288 -1.06096e-05 -0.0221577
 -0.00220257 0.112491 -0.0281723
 -0.000171646 0.0708517 -0.0345092
 0.00128525 0.108135 -0.0365255
 0.000339359 0.193969 -0.0440119
 -0.00372255 -0.0344521 -0.011219
 -0.0147794 0.104855 -0.0155028
 0.00128856 -0.0470348 -0.00715581
 0.00231062 0.149209 -0.0497334
 -0.00745119 -0.11674 -0.0148925
 -0.0196418 0.101481 -0.0146754
 -0.00767787 0.216096 -0.041351
 -0.00376479 -0.0403811 0.0605519
 -0.00369103 -0.0123183 -0.00804129
 0.00668073 -0.107447 -0.0177734
 0.00381248 -0.0766553 -0.0570186
 -0.0112777 0.181702 -0.0299719
 0.00572644 -0.0637356 0.0678117
 -0.00925995 -0.00914782 0.000627667
 0.0182717 -0.0552661 0.035558
 0.00883187 -0.0711473 -0.0192275
 -0.00107874 0.0257119 -0.030413
 -0.00173171 0.0785305 -0.0269591
 0.0140656 -0.0477142 0.0528245
 -0.00289653 0.017585 -0.0178413
 0.00837179 -0.0708994 -0.0389832
 0.00136131 -0.0383227 0.0498952
 0.0192648 -0.0536919 0.0450713
 0.0209225 -0.0847288 0.0347793
 0.0222346 -0.0710323 0.0405733
 0.00839828 -0.0469041 0.0127541
 -0.013693 0.0566714 -0.00997466
 -0.0043142 0.0649972 -0.0428835
 0.00522096 -0.0586618 0.0664527
 -0.00767796 0.0174522 -0.00765958
 0.0132369 -0.0638405 0.00843409
 0.00836077 -0.0839853 -0.00512594
 0.00910896 -0.0710167 -0.0290451
 0.000266746 0.213616 -0.0500538
 -9.38028e-05 -0.0711913 0.0701191
 0.0114211 -0.0545207 0.00536582
 -0.00894669 0.123969 -0.021776
 0.00561826 -0.0619284 0.0672197
 0.0232433 -0.0710189 0.0502568
 0.0162464 -0.0487576 0.0431939
 -0.0111028 0.0630295 -0.0120971
 0.000903144 0.150893 -0.03993
 0.017354 -0.092239 0.0372767
 0.0114877 -0.0484585 0.0233184
 -0.00236261 -0.0180387 -0.0164045
 -0.00431575 0.00884414 -0.0145701
 0.00931612 -0.0707322 -0.0191488
 0.00263208 -0.0648758 0.0683894
 0.00092037 -0.105005 0.0412345
 0.0078112 -0.100691 0.000386655
 -0.00365795 -0.068431 -0.0598655
 -0.000245079 0.0730233 -0.035266
 0.000924394 0.0998089 -0.0336725
 -0.00539581 -0.0773501 0.0723998
 0.00312176 0.187422 -0.0618038
 0.0107434 -0.100055 0.0300636
 -0.00403136 0.0539013 -0.0189298
 0.0206202 -0.0793845 0.0233493
 0.00744686 -0.0932811 -0.0518844
 -0.0227483 0.0335858 -0.00288913
 -0.00766477 0.0182621 -0.00749961
 -0.0052647 0.0402617 -0.0148894
 -0.00422584 0.0996068 -0.0236721
 -0.00180124 -0.0709442 0.0705763
 0.00312491 0.183021 -0.0600766
 0.00572452 -0.104171 0.0314383
 0.00428458 -0.100963 -0.059133
 -0.0115006 -0.0835891 0.074405
 -0.00313999 -0.0267431 -0.0130509
 -0.0104354 0.0636507 -0.0123729
 -0.00431648 0.0481799 -0.0172952
 0.000691816 0.109851 -0.0465925
 -0.011661 -0.0191622 0.00450298
 -0.00493395 0.04682 -0.0165997
 0.00925268 -0.0747637 -0.0276857
 -0.00696404 0.214157 -0.0401537
 -0.00510687 0.0935377 -0.0217426
 0.00486921 -0.100984 -0.0492815
 0.00262009 -0.105301 -0.0575313
 -0.0253387 0.0261052 -0.000152439
 -0.00969361 -0.0115885 0.00187144
 0.01621 -0.0928063 0.0180096
 0.0141744 -0.0552145 0.0160411
 0.00776127 -0.0798162 -0.00594217
 -0.00617406 0.0325121 -0.0121566
 -0.0153248 0.107491 -0.0162463
 -0.0365609 -0.0520794 0.0741042
 0.00298332 0.15372 -0.0505977
 0.0029593 0.179932 -0.0492638
 0.0202263 -0.063353 0.028558
 0.00962415 -0.063993 -0.0212202
 -0.0117232 0.116998 -0.0194232
 0.000137046 0.0816397 -0.037491
 -0.0038994 -0.0390426 -0.0192795
 0.00235976 0.117479 -0.0392125
 -0.000104725 -0.0704428 0.0702638
 0.0153511 -0.0509594 0.0344341
 0.0104121 -0.0625222 -0.0115767
 -0.00897223 0.125029 -0.0216007
 -0.00295135 0.109708 -0.0265215
 0.000133961 0.0788264 -0.0367957
 -0.00470914 0.158277 -0.0323583
 0.000512496 0.131736 -0.033668
 0.000566959 0.131838 -0.0338081
 0.0176757 -0.054496 0.0552098
 0.0172637 -0.0881042 0.0161093
 0.0122633 -0.0548552 0.00575647
 -0.0203243 0.172351 -0.0267483
 -0.0174757 0.172346 -0.0264242
 -0.00247221 0.07057 -0.0240477
 -0.0148962 0.172304 -0.0269141
 0.023311 -0.071162 0.0506102
 -0.0202643 0.0406714 -0.00484616
 -0.00236686 0.0204468 -0.0181789
 -0.027806 0.0267295 -0.000370085
 -0.021918 0.0268104 -5.06639e-05
 0.00843824 -0.103451 0.0212126
 0.0197305 -0.0879589 0.0261618
 -0.0253834 0.107951 -0.0160976
 -0.00210325 0.0393852 -0.023982
 -0.0252198 0.117692 -0.0190329
 -0.00606555 0.0318184 -0.0118445
 0.00244573 0.141496 -0.0465446
 0.000109896 0.194825 -0.0439203
 0.0186723 -0.0726746 0.061548
 -0.00551426 -0.0405974 0.00152278
 0.0223941 -0.0710127 0.0408591
 -0.00669248 -0.029606 -0.00231823
 -0.00455588 -0.0182198 -0.00554323
 0.00363617 -0.0553184 -0.0235604
 0.00904316 -0.070728 -0.0285367
 -0.00564046 0.147776 -0.0285903
 -0.00316834 -0.0713795 0.0707078
 0.0109414 -0.0498038 0.0142401
 -0.000828296 0.0179207 -0.027006
 -0.0341913 -0.0463396 0.0727234
 -0.00947025 0.216672 -0.040432
 0.00222044 -0.106347 0.0321143
 -0.00250286 0.0695342 -0.0238856
 -0.00403418 0.166775 -0.0345185
 0.00311179 0.183903 -0.0499899
 0.00510427 -0.0525016 0.0646236
 0.0213853 -0.0816032 0.0340945
 0.0178131 -0.0639817 0.0186628
 0.0106375 -0.0845253 -0.0439422
 0.00115947 0.101127 -0.0338892
 0.00365938 0.166927 -0.0544968
 0.00541952 -0.0539851 0.0650788
 0.018002 -0.0894764 0.0467009
 -0.0283348 0.108748 -0.0162098
 -0.0226749 0.108771 -0.0160496
 0.0112156 -0.0941948 -0.0109439
 -0.0170981 0.108765 -0.0160801
 0.0129016 -0.0921831 -0.0318916
 -0.00875288 -0.0775076 0.0730234
 0.0192176 -0.0711093 0.0605847
 -0.00224641 -0.116033 -0.0240559
 -0.0201178 0.10718 -0.0157093
 -0.00170103 -0.0696343 -0.0584994
 -0.0024661 0.173286 -0.0367869
 -0.00145882 0.184093 -0.0402891
 -0.007184 0.0791452 -0.0169221
 0.00144346 0.20483 -0.0465493
 0.0173478 -0.0920299 0.0279425
 0.0120053 -0.0856784 -0.0338581
 0.00317016 0.128368 -0.0420464
 0.000535831 0.134803 -0.0541284
 0.0193196 -0.0641593 0.0589589
 -0.00322333 -0.115908 -0.0143152
 3.42131e-05 -0.114017 -0.0348071
 -0.00595576 -0.0189251 -0.025029
 0.00507662 -0.056493 -0.0233778
 -0.0134668 -0.0836176 0.0750455
 -0.0119949 0.0636976 -0.0114627
 -0.00198834 0.17795 -0.0379317
 0.0109944 -0.0478067 0.0239433
 0.0113933 -0.092608 -0.011448
 -0.00694032 0.132763 -0.0235243
 0.0105643 -0.0955819 0.05894
 -0.00318989 -0.0635985 -0.050764
 0.0119644 -0.0463063 0.0333239
 -0.00275153 -0.00959194 -0.0182118
 0.00204101 -0.106929 -0.056627
 -0.0393974 -0.0518388 0.0746695
 0.0132257 -0.0966158 0.0393752
 -0.00957488 0.0088861 -0.00394964
 -0.0137897 0.0573884 -0.00974452
 -0.00595561 0.090402 -0.0201176
 0.00287253 -0.062121 -0.0409932
 -0.00123754 0.0485149 -0.0265898
 0.000601739 0.145869 -0.0377069
 0.00158162 -0.0471262 0.0635162
 0.00309107 -0.106908 0.0226679
 0.0161971 -0.0516061 0.0549032
 -0.00215811 -0.0122666 -0.0172522
 -0.00333387 0.0628389 -0.0211169
 -0.00328989 0.111207 -0.026559
 -0.00592764 0.148617 -0.0287848
 0.00428239 -0.107698 0.00322065
 -0.0110333 0.0642943 -0.0118822
 0.00136794 0.143283 -0.0567347
 0.00177227 -0.0622958 0.0682673
 0.00968924 -0.097835 0.0498252
 0.0175662 -0.06298 0.0187326
 0.00291394 0.172701 -0.045995
 0.021764 -0.0709355 0.0313158
 0.0169503 -0.0908809 0.0178612
 0.00755852 -0.0556619 -0.013033
 0.0046868 -0.106875 -0.0366437
 0.000850603 0.100836 -0.0333455
 -0.0173769 0.0484394 -0.00688183
 0.0143422 -0.0548686 0.016383
 -0.00498733 -0.0354601 -0.0195437
 0.00376381 -0.108469 -0.0362465
 0.00891715 -0.103809 -0.0277064
 -0.0122047 0.119257 -0.0192136
 0.00854598 -0.0708836 -0.0383331
 1.84774e-05 0.136791 -0.0345003
 0.00358748 -0.055809 0.0664552
 -0.00323267 -0.116483 -0.0235433
 -0.000160739 0.0711828 -0.0334262
 -0.000846952 0.124167 -0.0307166
 0.0115202 -0.0997555 0.0109705
 0.00895275 -0.0714378 -0.00839007
 0.00352582 -0.0627823 -0.0405944
 -0.0101481 0.197844 -0.034323
 0.00691342 -0.103247 0.0317092
 0.0204587 -0.0566971 0.0469631
 0.0173443 -0.0921717 0.0282139
 -0.00367033 -0.0355167 -0.00991827
 0.0134054 -0.0928883 -0.0209516
 0.0110766 -0.0910033 -0.0418371
 0.000309438 0.090193 -0.0397887
 -0.00601201 -0.0715019 0.0714093
 -0.0206254 0.0428359 -0.0049139
 -0.00395344 -0.0105416 -0.00791529
 0.00866149 -0.100694 -0.00880659
 0.00192966 -0.107855 -0.0461187
 0.00805083 -0.0856775 -0.0533183
 0.00060077 0.141496 -0.0361496
 0.00240724 0.163817 -0.0430179
 -0.0017457 0.218606 -0.0607024
 -0.0252631 0.0411682 -0.00409308
 0.00123909 -0.0635868 0.0686847
 -0.0032692 -0.114794 -0.00437045
 -0.00657465 0.0350627 -0.0122387
 0.00298916 0.204632 -0.0561747
 -0.000410601 -0.0650979 0.0691318
 0.0223599 -0.0785857 0.043869
 -0.00253114 -0.0416251 -0.00756067
 -0.00537689 0.0446385 -0.0152282
 -0.00639027 -0.117015 -0.0533974
 -0.00272705 0.174505 -0.036897
 0.00306055 0.132817 -0.0429379
 -0.0116421 -0.0775862 0.0734853
 -0.0145576 -0.0229096 0.00627282
 -0.0230788 0.0475855 -0.0060887
 0.0126603 -0.0716121 0.0117061
 0.0148307 -0.0556768 0.0169578
 -0.0130447 0.188693 -0.0312873
 0.0110957 -0.0888554 -0.0420089
 0.00870989 -0.0777487 -0.0459038
 0.00337274 0.173859 -0.0561758
 0.00287464 -0.0583994 0.0673634
 0.0220967 -0.0785328 0.0539587
 -0.00505395 0.00266224 -0.0115897
 -0.00214659 0.0357549 -0.0219878
 -0.0113251 -0.0620932 -0.0605022
 0.0120794 -0.0981726 -0.0291491
 -0.0363494 -0.0834722 0.0754113
