# .PCD v0.7 - Point Cloud Data file format
VERSION 0.7
FIELDS x y z
SIZE 4 4 4
TYPE F F F
COUNT 1 1 1
WIDTH 1629
HEIGHT 1
VIEWPOINT 0 0 0 1 0 0 0
POINTS 1629
DATA ascii
-0.017266 0.113477 -0.052470
-0.011472 0.105820 -0.049472
-0.009227 0.098303 -0.047290
-0.008873 0.091854 -0.048458
-0.008532 0.085070 -0.046917
0.000341 0.040305 -0.041313
0.003031 0.034823 -0.041344
0.006569 0.028479 -0.039458
0.009731 0.022039 -0.037425
0.011164 0.016049 -0.037772
0.013107 0.009517 -0.035290
0.014472 0.003445 -0.034821
0.013544 -0.002325 -0.037620
0.015776 -0.008183 -0.035599
0.020602 -0.014633 -0.030715
0.023587 -0.020235 -0.029634
0.026234 -0.025876 -0.028885
0.028155 -0.031784 -0.028647
0.029565 -0.038329 -0.026839
0.029598 -0.044247 -0.025602
0.028966 -0.050841 -0.026647
0.027235 -0.057083 -0.027241
0.022787 -0.064209 -0.029697
0.012896 -0.072187 -0.034866
-0.013435 0.111206 -0.043943
-0.010112 0.104484 -0.042417
-0.008396 0.097683 -0.041254
-0.007280 0.091508 -0.041917
-0.006254 0.084738 -0.041205
-0.008007 0.078335 -0.043466
-0.012324 0.072134 -0.047090
-0.007167 0.053476 -0.041298
-0.003197 0.047852 -0.040244
0.001178 0.041095 -0.037119
0.005043 0.033790 -0.033513
0.008304 0.027873 -0.032149
0.010961 0.022025 -0.031251
0.013099 0.015688 -0.029720
0.015138 0.009634 -0.028723
0.016946 0.003558 -0.027654
0.017889 -0.002149 -0.028333
0.019218 -0.008021 -0.027757
0.021380 -0.013860 -0.026516
0.024360 -0.020233 -0.023651
0.026436 -0.025947 -0.022945
0.028288 -0.031826 -0.022196
0.029361 -0.037960 -0.021427
0.029389 -0.044157 -0.021587
0.028540 -0.051231 -0.023082
0.026595 -0.056974 -0.022767
0.022543 -0.064515 -0.025300
0.016892 -0.069469 -0.026976
-0.070078 0.168027 -0.068955
-0.057865 0.157039 -0.062185
-0.055066 0.151622 -0.061376
-0.011548 0.110825 -0.038126
-0.008806 0.103545 -0.035929
-0.007752 0.097857 -0.036998
-0.005944 0.090692 -0.034615
-0.004421 0.084278 -0.033928
-0.004499 0.077957 -0.033497
-0.007027 0.071815 -0.035936
-0.009177 0.065772 -0.038538
-0.007970 0.059512 -0.036807
-0.005203 0.053764 -0.036147
0.000128 0.046410 -0.031385
0.002511 0.040460 -0.030550
0.005029 0.034602 -0.029641
0.008166 0.028615 -0.028220
0.011197 0.021556 -0.025300
0.013260 0.016389 -0.025729
0.015270 0.010285 -0.024751
0.017369 0.003633 -0.022212
0.019062 -0.002426 -0.021133
0.020553 -0.007840 -0.021575
0.022549 -0.014236 -0.019393
0.024396 -0.019969 -0.018697
0.026466 -0.026183 -0.016663
0.028305 -0.031461 -0.017620
0.029323 -0.037590 -0.016059
0.029178 -0.043822 -0.016667
0.028096 -0.051065 -0.018582
0.026541 -0.056951 -0.018320
0.022656 -0.064825 -0.020964
0.013693 -0.072612 -0.025353
-0.072724 0.165661 -0.065026
-0.058008 0.155704 -0.056652
-0.055614 0.151989 -0.056782
-0.052913 0.144637 -0.056801
-0.010307 0.110617 -0.032547
-0.008285 0.104150 -0.031967
-0.006857 0.097618 -0.031339
-0.005321 0.091059 -0.030725
-0.003581 0.084201 -0.028955
-0.003564 0.077850 -0.030014
-0.004977 0.071584 -0.030000
-0.006131 0.065523 -0.031366
-0.005579 0.059614 -0.031514
-0.001990 0.052818 -0.027700
0.000171 0.047151 -0.027353
0.002582 0.040898 -0.025859
0.005088 0.034305 -0.023945
0.008021 0.028276 -0.022479
0.010595 0.021779 -0.020643
0.012540 0.016051 -0.020005
0.014678 0.010082 -0.018941
0.016536 0.003802 -0.017552
0.018592 -0.002119 -0.016473
0.020278 -0.007675 -0.016237
0.022120 -0.013389 -0.015477
0.024048 -0.019772 -0.013580
0.026037 -0.025262 -0.013219
0.027957 -0.031228 -0.012076
0.029342 -0.037294 -0.012797
0.029188 -0.043342 -0.011129
0.028273 -0.049387 -0.011260
0.026971 -0.056188 -0.012907
0.023919 -0.064175 -0.015704
0.016775 -0.071985 -0.018970
-0.025966 -0.083480 -0.039426
-0.057644 0.154589 -0.051626
-0.053785 0.149603 -0.050074
-0.050289 0.141957 -0.048343
-0.015107 0.117700 -0.030079
-0.009746 0.109614 -0.026585
-0.007983 0.102585 -0.025008
-0.006669 0.097089 -0.025777
-0.005284 0.090678 -0.025096
-0.003210 0.083887 -0.023427
-0.002540 0.077713 -0.024422
-0.002987 0.071340 -0.023998
-0.003949 0.065345 -0.025338
-0.002879 0.058881 -0.023135
-0.001472 0.053056 -0.023326
0.000356 0.046759 -0.021814
0.002238 0.040357 -0.020368
0.004385 0.034818 -0.019742
0.007396 0.028064 -0.017554
0.009803 0.021874 -0.016156
0.011611 0.016109 -0.015464
0.013694 0.009880 -0.014108
0.015653 0.004459 -0.013680
0.017708 -0.001729 -0.012313
0.019838 -0.007585 -0.011213
0.021695 -0.014028 -0.009491
0.023525 -0.019971 -0.008394
0.025472 -0.024911 -0.008597
0.027449 -0.031025 -0.007131
0.029008 -0.036909 -0.006430
0.029386 -0.042950 -0.006211
0.028702 -0.049229 -0.006854
0.027397 -0.056725 -0.009856
0.026010 -0.062022 -0.008772
0.022101 -0.069581 -0.011543
-0.022293 -0.077680 -0.034196
-0.059768 0.155018 -0.048023
-0.052601 0.147453 -0.044098
-0.048695 0.139542 -0.041647
-0.048118 0.137635 -0.043675
-0.013678 0.116114 -0.023671
-0.009606 0.109396 -0.021651
-0.007946 0.101960 -0.019643
-0.006753 0.096847 -0.020789
-0.005155 0.090809 -0.020589
-0.003278 0.083681 -0.018482
-0.002202 0.077419 -0.018229
-0.002192 0.071226 -0.018931
-0.002768 0.065093 -0.021013
-0.002549 0.058678 -0.017676
-0.001604 0.052889 -0.018205
-0.000411 0.045984 -0.016104
0.001614 0.039809 -0.015174
0.004246 0.033645 -0.013820
0.006651 0.027802 -0.012752
0.008975 0.021284 -0.011169
0.010731 0.016480 -0.011170
0.012666 0.009918 -0.009663
0.014875 0.004071 -0.008540
0.016979 -0.001200 -0.007898
0.018928 -0.007702 -0.006390
0.020760 -0.013635 -0.005344
0.022583 -0.019281 -0.004546
0.024651 -0.025333 -0.003133
0.026682 -0.030916 -0.002274
0.028455 -0.036471 -0.001802
0.029320 -0.042548 -0.001699
0.029191 -0.048451 -0.000473
0.028536 -0.054893 -0.002254
0.027294 -0.061382 -0.003501
0.024724 -0.068649 -0.006035
-0.053133 0.147496 -0.039566
-0.048480 0.140280 -0.037163
-0.046620 0.136865 -0.037484
-0.025893 0.126024 -0.025810
-0.015225 0.117886 -0.020439
-0.010194 0.109951 -0.017578
-0.008228 0.102701 -0.016064
-0.006924 0.096871 -0.016231
-0.005359 0.089963 -0.014704
-0.003473 0.083657 -0.013977
-0.002403 0.077413 -0.013713
-0.001937 0.071032 -0.013458
-0.002392 0.064788 -0.013122
-0.002542 0.058806 -0.013665
-0.002007 0.052675 -0.013178
-0.000895 0.046484 -0.012302
0.000952 0.040479 -0.011320
0.003385 0.034667 -0.010149
0.005687 0.027484 -0.008108
0.007715 0.021862 -0.007285
0.009798 0.016269 -0.006379
0.011847 0.010035 -0.005141
0.013798 0.004109 -0.004098
0.015973 -0.002361 -0.002699
0.017883 -0.007318 -0.002099
0.019886 -0.013162 -0.001008
0.021668 -0.019099 -0.000015
0.023673 -0.024681 0.000847
0.025625 -0.030745 0.002171
0.027606 -0.036173 0.002680
0.029103 -0.042006 0.002981
0.029614 -0.048058 0.003955
0.029481 -0.054462 0.002011
0.029639 -0.060162 0.003493
0.028545 -0.066389 0.002885
0.026356 -0.073195 0.001234
0.089919 -0.127424 0.036502
0.090177 -0.132563 0.036522
-0.054250 0.147111 -0.034993
-0.048255 0.140560 -0.031941
-0.044631 0.136264 -0.030741
-0.021875 0.123202 -0.017898
-0.014053 0.115374 -0.013646
-0.010571 0.109616 -0.012364
-0.008176 0.101745 -0.010173
-0.007001 0.096368 -0.010629
-0.005506 0.090053 -0.009925
-0.004063 0.083429 -0.008812
-0.002548 0.077420 -0.008883
-0.001823 0.070980 -0.008550
-0.002223 0.064978 -0.010060
-0.002573 0.058627 -0.008383
-0.002131 0.052676 -0.008290
-0.001249 0.046404 -0.007130
0.000310 0.040035 -0.005974
0.002319 0.034628 -0.005335
0.004622 0.027846 -0.003687
0.006587 0.021881 -0.002665
0.008442 0.015895 -0.001679
0.010468 0.009993 -0.000605
0.012155 0.004631 0.000316
0.014222 -0.001529 0.001409
0.016310 -0.007363 0.002488
0.018329 -0.013529 0.003596
0.020121 -0.018467 0.004369
0.022153 -0.023700 0.005126
0.024330 -0.030626 0.006766
0.026354 -0.036122 0.007679
0.028268 -0.041584 0.008173
0.029726 -0.047423 0.008263
0.030808 -0.053375 0.008278
0.031607 -0.059343 0.009551
0.031133 -0.065417 0.009393
0.029354 -0.072222 0.007537
0.026015 -0.078852 0.006256
0.085367 -0.121381 0.039233
0.087946 -0.126919 0.040823
0.087795 -0.133102 0.040747
0.081171 -0.141898 0.038164
-0.060759 0.148700 -0.033472
-0.045811 0.136571 -0.025157
-0.043432 0.135056 -0.025023
-0.023045 0.122710 -0.013480
-0.014866 0.115261 -0.009158
-0.010418 0.107253 -0.006200
-0.008724 0.103398 -0.006896
-0.006527 0.095304 -0.004539
-0.005433 0.089270 -0.004198
-0.004181 0.083734 -0.004477
-0.003125 0.077029 -0.003445
-0.002278 0.070857 -0.003492
-0.002238 0.064661 -0.004012
-0.002520 0.058468 -0.003292
-0.002625 0.052382 -0.002961
-0.001900 0.046536 -0.002725
-0.000468 0.040509 -0.001738
0.001112 0.033397 -0.000555
0.002830 0.028755 0.000438
0.004464 0.022718 0.001531
0.006334 0.016129 0.002254
0.007949 0.010406 0.003288
0.009941 0.004186 0.004120
0.011681 -0.001019 0.005505
0.013432 -0.006198 0.006783
0.016269 -0.013213 0.007487
0.018344 -0.018622 0.008676
0.020402 -0.024040 0.009684
0.022486 -0.030537 0.010746
0.024942 -0.035793 0.011838
0.027345 -0.041412 0.013005
0.029121 -0.047067 0.013740
0.030996 -0.052581 0.013543
0.032277 -0.058706 0.013922
0.033382 -0.064187 0.017730
0.032239 -0.070830 0.014562
0.028837 -0.077765 0.012529
0.068548 -0.102525 0.034526
0.070967 -0.106239 0.034033
0.077168 -0.112087 0.039888
0.080859 -0.116140 0.041764
0.083651 -0.121301 0.043324
0.085884 -0.126147 0.044275
0.084977 -0.132824 0.044418
0.083426 -0.136551 0.042248
-0.047902 0.139035 -0.021739
-0.040249 0.132313 -0.017755
-0.024032 0.122411 -0.009033
-0.016238 0.115623 -0.004979
-0.011875 0.108973 -0.002793
-0.009170 0.102120 -0.001348
-0.007344 0.095881 -0.000546
-0.005964 0.090182 -0.000340
-0.004707 0.082912 0.001082
-0.003487 0.077021 0.001326
-0.002667 0.070732 0.001692
-0.002777 0.064393 0.001629
-0.003131 0.058305 0.001578
-0.003430 0.052236 0.001825
-0.002775 0.046305 0.002159
-0.001946 0.040477 0.002742
-0.000850 0.034127 0.003364
0.000741 0.028066 0.004243
0.001683 0.022588 0.005531
0.003327 0.016323 0.005975
0.004554 0.010487 0.006875
0.006353 0.004559 0.007832
0.008297 -0.001281 0.008771
0.010932 -0.007222 0.009903
0.012968 -0.012552 0.011315
0.015164 -0.017864 0.012684
0.017969 -0.024169 0.013609
0.020628 -0.030034 0.014803
0.023058 -0.035193 0.015918
0.025966 -0.041309 0.017405
0.028138 -0.046677 0.018311
0.030363 -0.052377 0.019399
0.032391 -0.057865 0.019621
0.034121 -0.063715 0.021282
0.034626 -0.069517 0.021645
0.031990 -0.076703 0.018527
0.029232 -0.082038 0.019619
0.065920 -0.097098 0.038506
0.069472 -0.101214 0.039684
0.072871 -0.106118 0.041775
0.076614 -0.111334 0.044445
0.079543 -0.115962 0.046152
0.081689 -0.121184 0.047081
0.082571 -0.126814 0.048126
0.083415 -0.130304 0.046807
0.078570 -0.136869 0.043994
-0.047398 0.137876 -0.016571
-0.040472 0.131861 -0.012744
-0.023421 0.120063 -0.003905
-0.017419 0.115216 -0.000528
-0.012954 0.107476 0.001866
-0.010711 0.102736 0.002855
-0.008640 0.095647 0.004014
-0.006972 0.089441 0.004825
-0.005582 0.083061 0.005539
-0.004554 0.076684 0.006103
-0.003708 0.070566 0.006447
-0.003953 0.064366 0.006222
-0.004439 0.058232 0.006077
-0.004861 0.052173 0.006122
-0.004481 0.046315 0.006510
-0.003981 0.040292 0.006995
-0.003330 0.034160 0.007256
-0.002621 0.028250 0.008105
-0.001375 0.022154 0.008586
0.000256 0.015875 0.008699
0.000552 0.010281 0.009811
0.003167 0.003894 0.010101
0.005239 -0.001981 0.011267
0.007052 -0.007407 0.012807
0.009225 -0.012587 0.014624
0.012857 -0.019006 0.015642
0.015545 -0.024905 0.016888
0.016904 -0.028886 0.018707
0.021077 -0.035459 0.020034
0.024192 -0.041056 0.021551
0.026835 -0.046854 0.022938
0.029400 -0.051596 0.023714
0.031886 -0.057233 0.024732
0.034341 -0.063149 0.026759
0.035838 -0.068682 0.025677
0.036194 -0.074656 0.025933
0.029936 -0.083438 0.022521
0.061503 -0.090776 0.040320
0.066060 -0.095957 0.043055
0.069576 -0.100878 0.045065
0.072655 -0.105919 0.047157
0.075413 -0.110996 0.048803
0.077246 -0.115904 0.050675
0.079090 -0.121176 0.051029
0.079498 -0.126458 0.050763
0.079601 -0.130286 0.049112
-0.039683 0.129627 -0.007268
-0.030612 0.122263 -0.002396
-0.020161 0.115438 0.003401
-0.015621 0.108255 0.005726
-0.012585 0.101674 0.007309
-0.010736 0.095574 0.008324
-0.008875 0.088674 0.009199
-0.007541 0.083064 0.010086
-0.006322 0.076467 0.010596
-0.005917 0.070404 0.010878
-0.006276 0.064243 0.010619
-0.006950 0.058215 0.010197
-0.007124 0.052119 0.010434
-0.007089 0.046086 0.010124
-0.007000 0.040033 0.010217
-0.006674 0.034021 0.010573
-0.006341 0.027987 0.011119
-0.005694 0.021946 0.011312
-0.003900 0.015728 0.011041
-0.005162 0.010092 0.012433
-0.002820 0.003953 0.012665
-0.001491 -0.001814 0.013854
0.001527 -0.007442 0.015545
0.004009 -0.012776 0.017428
0.008367 -0.018993 0.018714
0.012197 -0.025384 0.019891
0.013614 -0.029601 0.022007
0.018726 -0.036241 0.023713
0.021509 -0.040758 0.025532
0.024937 -0.046647 0.027184
0.027779 -0.051364 0.028427
0.031064 -0.056860 0.029906
0.034125 -0.062331 0.031504
0.036635 -0.067603 0.031516
0.037988 -0.073149 0.030872
0.039194 -0.078996 0.032900
0.028369 -0.088380 0.028004
0.062403 -0.091193 0.047095
0.066079 -0.096656 0.049674
0.068859 -0.100773 0.050493
0.071441 -0.105861 0.052028
0.073356 -0.110855 0.052868
0.074968 -0.115866 0.053623
0.074429 -0.122061 0.054318
0.075686 -0.125872 0.052632
0.067020 -0.132512 0.046912
-0.042257 0.129819 -0.003734
-0.036981 0.124739 -0.000056
-0.022620 0.114488 0.006770
-0.018083 0.107640 0.009124
-0.015947 0.101970 0.010678
-0.013787 0.095988 0.012140
-0.011690 0.089456 0.013165
-0.010165 0.083155 0.014003
-0.008851 0.076310 0.014113
-0.008460 0.070303 0.014509
-0.008784 0.064232 0.014331
-0.009720 0.058067 0.014613
-0.010153 0.052023 0.014329
-0.010104 0.046078 0.013739
-0.010580 0.040041 0.013875
-0.011106 0.033899 0.014288
-0.010409 0.027908 0.013590
-0.009870 0.021860 0.013284
-0.009086 0.015764 0.013146
-0.010944 0.009732 0.013932
-0.006889 0.003457 0.013607
-0.008833 -0.002138 0.015067
-0.002589 -0.008310 0.016807
0.001284 -0.013931 0.019153
0.004400 -0.019464 0.021113
0.006832 -0.024895 0.022778
0.008928 -0.029754 0.024795
0.014250 -0.035591 0.026893
0.018569 -0.040778 0.029082
0.022448 -0.046380 0.030892
0.025773 -0.051170 0.032489
0.030387 -0.057640 0.035242
0.033703 -0.062804 0.037120
0.036390 -0.067191 0.037703
0.039159 -0.072706 0.039455
0.041164 -0.077277 0.038944
0.044764 -0.081104 0.040658
0.056509 -0.086812 0.049188
0.060965 -0.089966 0.050819
0.065031 -0.095154 0.053237
0.068025 -0.100275 0.055013
0.070076 -0.105262 0.056172
0.071034 -0.110795 0.057250
0.071881 -0.115796 0.056752
0.070802 -0.121601 0.056060
0.069692 -0.126147 0.053568
-0.044885 0.130023 -0.000108
-0.039175 0.123651 0.003470
-0.027260 0.114318 0.008938
-0.022935 0.108443 0.011875
-0.019331 0.101524 0.013547
-0.016775 0.095385 0.015209
-0.013999 0.088345 0.015988
-0.013155 0.082750 0.017118
-0.012082 0.076426 0.017490
-0.011854 0.070378 0.017894
-0.012376 0.064242 0.018022
-0.012914 0.058128 0.017591
-0.013943 0.052027 0.017899
-0.014111 0.045998 0.017163
-0.014453 0.039929 0.016900
-0.014345 0.033999 0.016044
-0.017151 0.027634 0.016393
-0.017416 0.021615 0.015691
-0.015885 0.015741 0.014701
-0.014886 0.009651 0.014470
-0.015427 0.003461 0.014607
-0.014200 -0.002686 0.015189
-0.013031 -0.008623 0.016505
-0.002490 -0.014871 0.020498
-0.001687 -0.019464 0.023334
0.002201 -0.025268 0.025053
0.005993 -0.031159 0.026611
0.010173 -0.036359 0.029171
0.016455 -0.042022 0.032185
0.018588 -0.045480 0.034370
0.023970 -0.051453 0.036670
0.028366 -0.056505 0.038864
0.032342 -0.061839 0.040916
0.035261 -0.066279 0.041936
0.038247 -0.070860 0.042843
0.041716 -0.075910 0.044857
0.048476 -0.081505 0.049498
0.055242 -0.085909 0.053187
0.060283 -0.090552 0.055933
0.063810 -0.094145 0.057490
0.067990 -0.105566 0.060791
0.067517 -0.111536 0.060871
0.066282 -0.117241 0.059674
0.064678 -0.122260 0.057403
-0.042150 0.122915 0.006371
-0.036396 0.116548 0.010130
-0.030486 0.110047 0.013960
-0.024971 0.102562 0.016393
-0.021325 0.095565 0.017855
-0.019571 0.089475 0.019310
-0.016738 0.082439 0.019480
-0.016732 0.076795 0.020764
-0.016196 0.070506 0.020957
-0.015186 0.064300 0.020222
-0.015731 0.058359 0.019612
-0.016887 0.052232 0.019640
-0.018321 0.046080 0.019480
-0.018717 0.040084 0.018761
-0.019679 0.034029 0.018064
-0.017780 0.028326 0.016532
-0.022175 0.021893 0.016010
-0.021138 0.015929 0.014853
-0.022496 0.009681 0.014222
-0.025669 0.003220 0.013232
-0.025178 -0.003018 0.013038
-0.021946 -0.009272 0.014136
-0.013973 -0.015364 0.018961
-0.006207 -0.020541 0.024190
-0.003176 -0.025833 0.026602
-0.000055 -0.031267 0.028661
0.001506 -0.036045 0.031016
0.011410 -0.042129 0.034506
0.014603 -0.045565 0.037489
0.020777 -0.050760 0.040311
0.025938 -0.055960 0.042789
0.030430 -0.061647 0.044967
0.033840 -0.066109 0.046564
0.038091 -0.071737 0.048927
0.041755 -0.075696 0.050635
0.046625 -0.080226 0.053428
0.053563 -0.085503 0.057250
0.058358 -0.089158 0.059826
0.062901 -0.094774 0.062248
0.064830 -0.099732 0.063477
0.065993 -0.104639 0.063061
0.065044 -0.110713 0.063238
0.062574 -0.116578 0.061493
0.057104 -0.123080 0.058031
-0.048317 0.122969 0.007544
-0.042797 0.116921 0.011742
-0.035427 0.109486 0.015571
-0.029846 0.102354 0.018290
-0.026154 0.095448 0.019732
-0.024530 0.089396 0.021189
-0.023580 0.083449 0.022572
-0.020393 0.076540 0.022718
-0.020357 0.070526 0.023245
-0.019445 0.064378 0.022846
-0.020833 0.058281 0.022993
-0.021928 0.052202 0.022397
-0.022448 0.046321 0.021156
-0.022768 0.040459 0.019990
-0.024313 0.034431 0.018905
-0.024242 0.028620 0.017673
-0.032327 0.022041 0.014432
-0.027317 0.016429 0.014145
-0.041609 0.009708 0.006908
-0.036323 -0.022706 0.006437
-0.009910 -0.026682 0.026719
-0.007034 -0.031956 0.029354
-0.002160 -0.037396 0.032051
0.002714 -0.042126 0.035613
0.011340 -0.046675 0.040197
0.018261 -0.051446 0.043774
0.023963 -0.056872 0.046517
0.028786 -0.062106 0.049024
0.031930 -0.065749 0.050825
0.037361 -0.071872 0.053641
0.041987 -0.077250 0.056132
0.046317 -0.081044 0.058398
0.052530 -0.086208 0.061596
0.057045 -0.089720 0.064173
0.060279 -0.094486 0.066069
0.062777 -0.099468 0.066109
0.063447 -0.104451 0.066106
0.058804 -0.112383 0.065861
0.056623 -0.117374 0.063155
-0.045543 0.115206 0.013079
-0.040940 0.109250 0.016807
-0.035377 0.102303 0.019706
-0.033075 0.096153 0.021651
-0.029357 0.089269 0.022815
-0.027203 0.082879 0.023774
-0.024490 0.076380 0.024189
-0.023781 0.070421 0.024936
-0.025164 0.064490 0.025641
-0.025548 0.058434 0.024989
-0.026712 0.052504 0.023884
-0.027793 0.046728 0.022131
-0.030234 0.040764 0.020396
-0.030877 0.035039 0.018492
-0.042829 0.028690 0.012361
-0.014443 -0.038865 0.028818
-0.002141 -0.043868 0.035559
0.005952 -0.048022 0.041383
0.014452 -0.052073 0.046479
0.020479 -0.056776 0.049774
0.024326 -0.061044 0.052258
0.030038 -0.066412 0.054867
0.035008 -0.071436 0.057389
0.039329 -0.076241 0.059696
0.045312 -0.082057 0.062421
0.048587 -0.084629 0.065085
0.053977 -0.089311 0.067889
0.057481 -0.094778 0.069230
0.057771 -0.100455 0.070316
0.056653 -0.106387 0.069551
0.053202 -0.113058 0.067702
0.053557 -0.116313 0.065245
-0.040936 0.102010 0.020727
-0.040428 0.096497 0.022791
-0.037339 0.089960 0.024499
-0.033515 0.083142 0.025435
-0.031307 0.076810 0.026279
-0.030642 0.070738 0.027048
-0.027947 0.064649 0.026398
-0.031128 0.058750 0.026094
-0.033764 0.052891 0.024395
-0.032901 0.047574 0.022401
-0.043552 0.041383 0.017449
0.009908 -0.053443 0.048179
0.011213 -0.056564 0.051604
0.020159 -0.061661 0.055295
0.026229 -0.066487 0.058278
0.031397 -0.071272 0.061001
0.033861 -0.075138 0.063551
0.039876 -0.081199 0.065276
0.043810 -0.084830 0.068474
0.051994 -0.089882 0.071547
0.053936 -0.094900 0.072733
0.053737 -0.100358 0.071937
0.052052 -0.105923 0.070457
0.051928 -0.110580 0.069034
0.046735 -0.116319 0.065517
-0.044763 0.095870 0.022893
-0.039298 0.088912 0.024761
-0.041343 0.083561 0.025974
-0.037360 0.076947 0.027111
-0.036767 0.070933 0.027606
-0.037813 0.065039 0.027250
-0.037075 0.059290 0.026187
-0.042807 0.053655 0.022956
0.008871 -0.058611 0.052795
0.014644 -0.062805 0.056744
0.024657 -0.067941 0.060869
0.028299 -0.072144 0.063633
0.031176 -0.076532 0.065996
0.033844 -0.081436 0.067906
0.040568 -0.086365 0.070289
0.050267 -0.090676 0.073307
0.046957 -0.095914 0.074448
0.048979 -0.100521 0.072815
0.044453 -0.107256 0.071415
-0.045823 0.089200 0.024467
-0.053984 0.084353 0.023050
-0.047424 0.077648 0.025770
-0.045831 0.071556 0.025842
-0.052733 0.065953 0.022768
-0.057305 0.060403 0.019217
0.011948 -0.068781 0.059883
0.025450 -0.073293 0.065343
0.025683 -0.077542 0.067441
0.028297 -0.082656 0.068912
0.032738 -0.087612 0.070612
0.048740 -0.090960 0.074168
0.045419 -0.096100 0.074108
0.037402 -0.103237 0.073661
0.037513 -0.108451 0.072476
0.019278 -0.078979 0.066505
0.025246 -0.083785 0.068848
0.027961 -0.088674 0.070102
0.043004 -0.092392 0.072864
0.044005 -0.096219 0.073937
0.033528 -0.103422 0.073625
0.034794 -0.107731 0.073027
0.032518 -0.107541 0.073957
-0.027635 0.087166 0.022933
-0.031932 0.072702 0.027108
-0.041857 0.070186 0.026991
-0.017755 0.091519 0.017419
-0.019972 0.069916 0.023141
-0.025906 0.060635 0.025668
-0.035060 0.057018 0.025953
-0.044621 0.054730 0.022922
-0.011286 0.071324 0.017074
-0.015896 0.056889 0.019314
-0.021604 0.052438 0.022304
-0.031017 0.049977 0.023545
-0.040069 0.046300 0.020916
-0.050898 0.047349 0.016741
-0.007445 0.089721 0.005802
-0.012335 0.054243 0.016536
-0.017547 0.043645 0.018592
-0.025111 0.039238 0.020176
-0.035436 0.038045 0.019122
-0.045441 0.037700 0.014722
-0.004154 0.074157 0.005127
0.051427 -0.092175 0.073372
-0.009470 0.045136 0.012806
-0.013700 0.037846 0.016030
-0.019333 0.027414 0.016855
0.028761 -0.100106 0.071022
-0.038577 0.025789 0.013854
-0.003005 0.069520 0.001786
0.052484 -0.091695 0.070776
0.023024 -0.059202 0.050385
0.035504 -0.099633 0.073690
0.032499 -0.110021 0.072128
-0.032726 0.015273 0.012697
-0.053603 0.032473 0.002259
-0.002870 0.065155 -0.002108
0.055187 -0.091102 0.067855
0.052588 -0.094144 0.073310
0.045517 -0.100436 0.073830
0.039698 -0.107415 0.072451
0.034067 -0.111733 0.069772
0.010822 -0.087489 0.059495
-0.041568 0.010902 0.007490
-0.002459 0.075775 -0.012495
0.056096 -0.104284 0.070059
0.049416 -0.108187 0.070785
0.043103 -0.113206 0.068736
0.034124 -0.113100 0.066480
0.020441 -0.101929 0.058203
0.004675 -0.087762 0.048440
-0.002175 0.075945 -0.019020
0.063942 -0.103817 0.065650
0.059229 -0.109068 0.067800
0.052310 -0.113766 0.067498
0.045191 -0.116547 0.065389
0.034447 -0.114793 0.061968
0.024439 -0.105885 0.054439
0.011094 -0.093125 0.045501
-0.020984 -0.050447 0.023119
0.066558 -0.107567 0.062551
0.061380 -0.114115 0.063566
0.054559 -0.117486 0.064243
0.046596 -0.119595 0.062403
0.038183 -0.117587 0.057616
0.024976 -0.105712 0.048888
0.011090 -0.093543 0.039948
0.068684 -0.113607 0.058984
0.063961 -0.118000 0.060574
0.057504 -0.121859 0.059117
0.050906 -0.123082 0.057326
0.040751 -0.119346 0.053277
0.012288 -0.093948 0.034663
0.071804 -0.116821 0.056661
0.066397 -0.122378 0.057191
0.059299 -0.124551 0.056214
0.049876 -0.124502 0.053760
0.042205 -0.120713 0.048788
0.012737 -0.093182 0.028440
0.074832 -0.121449 0.054152
0.068857 -0.126156 0.054020
0.060844 -0.127085 0.052963
0.053304 -0.126570 0.049106
0.042542 -0.121396 0.043620
0.013223 -0.091817 0.023080
0.001959 -0.086473 0.016659
-0.013245 -0.074754 0.006967
0.077826 -0.124391 0.051891
0.071200 -0.129782 0.050761
0.063434 -0.130445 0.049180
0.056170 -0.128966 0.045303
0.002786 -0.085583 0.011152
-0.010289 -0.078290 0.003336
0.080295 -0.129933 0.048854
0.073629 -0.133542 0.047626
0.064901 -0.133059 0.045839
0.055258 -0.130144 0.040599
0.020883 -0.086417 0.011702
0.002648 -0.085092 0.004152
-0.008293 -0.080690 -0.001226
0.081426 -0.116963 0.037784
0.083021 -0.132495 0.045911
0.076538 -0.136969 0.043039
0.066785 -0.135848 0.043267
0.024898 -0.082327 0.009910
0.020943 -0.084368 0.005138
0.012988 -0.086099 0.001065
0.002385 -0.082979 -0.003165
-0.007903 -0.080274 -0.007599
0.088639 -0.126972 0.039290
0.085481 -0.135497 0.042365
0.077953 -0.140143 0.040533
0.024257 -0.075941 -0.000846
0.020679 -0.082722 -0.000425
0.002975 -0.080903 -0.009252
-0.007185 -0.079291 -0.014000
-0.017455 -0.076380 -0.018563
0.090128 -0.127488 0.034547
0.084270 -0.139901 0.037602
0.080015 -0.142567 0.037214
0.025432 -0.061952 -0.011430
0.022643 -0.069280 -0.010727
0.018217 -0.075725 -0.009977
0.011053 -0.077489 -0.013452
0.002760 -0.078595 -0.016588
-0.006253 -0.078869 -0.019915
-0.015341 -0.078018 -0.023178
0.089771 -0.124815 0.027671
0.086529 -0.140702 0.033746
0.080757 -0.144904 0.032557
0.029203 -0.047638 -0.024771
0.025958 -0.057769 -0.020905
0.022673 -0.065237 -0.019832
0.017243 -0.071248 -0.018996
0.010796 -0.074904 -0.020946
0.003029 -0.077294 -0.023518
-0.005383 -0.078489 -0.025859
-0.014089 -0.079200 -0.028681
-0.025886 -0.076553 -0.038678
0.088513 -0.141890 0.029339
0.029599 -0.046163 -0.031376
0.027171 -0.056363 -0.027753
0.022615 -0.064269 -0.025521
0.017839 -0.068473 -0.027765
0.011023 -0.073896 -0.026623
0.003771 -0.077015 -0.029840
-0.004643 -0.078825 -0.032182
-0.012811 -0.079897 -0.034060
-0.025103 -0.073310 -0.039011
-0.022511 0.118750 -0.130505
0.028460 -0.039668 -0.040520
0.028268 -0.055799 -0.033952
0.024381 -0.062452 -0.033600
0.019098 -0.067050 -0.035833
0.011595 -0.072716 -0.033712
0.004613 -0.076765 -0.035241
-0.003014 -0.078857 -0.036741
0.020288 -0.020865 -0.060674
0.028420 -0.054298 -0.040019
0.023869 -0.062173 -0.038187
0.018458 -0.067039 -0.039463
0.012214 -0.071851 -0.040611
0.005350 -0.076504 -0.041219
-0.002695 -0.078660 -0.044165
-0.024549 -0.071289 -0.056480
0.026255 -0.052102 -0.046322
0.024122 -0.060201 -0.045086
0.018518 -0.065374 -0.045786
0.012534 -0.070649 -0.046896
0.006222 -0.076005 -0.048213
-0.019085 -0.062623 -0.063371
-0.026235 -0.069961 -0.061900
-0.026644 -0.069920 -0.070841
0.024876 -0.043586 -0.060216
0.021882 -0.049383 -0.060534
-0.026258 -0.069715 -0.068400
-0.031882 -0.074143 -0.070139
0.026041 -0.042199 -0.067720
0.023035 -0.046732 -0.068690
-0.027377 -0.069072 -0.075861
-0.030700 -0.075371 -0.075847
0.025701 -0.040807 -0.075487
0.021854 -0.044874 -0.075680
-0.028281 -0.067589 -0.083276
-0.031981 -0.077913 -0.080040
0.027061 -0.035308 -0.085089
0.023904 -0.039749 -0.085881
-0.030776 -0.078327 -0.085999
-0.031093 -0.082009 -0.088891
0.027306 -0.034726 -0.091907
0.023902 -0.037799 -0.093576
-0.030394 -0.078567 -0.092371
-0.033232 -0.086715 -0.090767
0.028449 -0.033230 -0.099054
0.024508 -0.036655 -0.100792
-0.030895 -0.073799 -0.102912
-0.033596 -0.085668 -0.097122
0.029613 -0.032761 -0.106438
-0.032258 -0.081772 -0.108427
0.031173 -0.030941 -0.114034
-0.033459 -0.083208 -0.112924
-0.037497 -0.088018 -0.114601
0.032657 -0.026264 -0.123883
-0.033618 -0.082658 -0.120356
-0.037825 -0.089219 -0.120285
0.032724 -0.028360 -0.129218
-0.035158 -0.081424 -0.129613
-0.036877 -0.090273 -0.126281
-0.035335 -0.092091 -0.133060
-0.041947 -0.092518 -0.136683
0.086886 -0.126852 0.043197
0.084422 -0.133013 0.044762
0.081852 -0.118855 0.045063
0.079733 -0.124828 0.051015
0.077464 -0.129738 0.050094
0.080363 -0.142869 0.037562
0.074809 -0.112001 0.051107
0.075589 -0.117864 0.053441
0.074381 -0.123891 0.053711
0.074323 -0.131440 0.049732
0.073559 -0.138508 0.042220
0.071943 -0.105600 0.049333
0.071819 -0.110966 0.056111
0.071035 -0.117267 0.057209
0.068773 -0.122067 0.056387
0.069329 -0.129804 0.050921
0.067741 -0.098654 0.052870
0.068059 -0.104090 0.059929
0.069504 -0.110827 0.059083
0.065458 -0.116025 0.060516
0.065386 -0.122878 0.057061
0.065121 -0.130592 0.049550
0.062331 -0.092180 0.056293
0.061744 -0.097030 0.066142
0.062977 -0.103044 0.066857
0.062203 -0.109595 0.065728
0.061805 -0.116687 0.061950
0.060983 -0.122629 0.058028
0.060646 -0.130971 0.045279
0.058174 -0.090572 0.063750
0.056978 -0.096219 0.070609
0.059256 -0.103108 0.069508
0.057845 -0.109452 0.068239
0.056536 -0.114236 0.065571
0.056518 -0.121750 0.059481
0.056772 -0.131330 0.039069
0.053738 -0.085081 0.056385
0.051948 -0.090644 0.072230
0.053687 -0.095833 0.072996
0.052304 -0.101444 0.071832
0.052773 -0.108520 0.069996
0.052172 -0.113195 0.067809
0.052198 -0.121133 0.060255
0.048932 -0.084246 0.063827
0.048946 -0.090099 0.074266
0.049259 -0.095460 0.074466
0.047990 -0.101221 0.072807
0.047593 -0.106131 0.071110
0.048010 -0.114485 0.067441
0.047907 -0.118502 0.063504
0.044610 -0.079218 0.057493
0.044135 -0.084056 0.066949
0.043817 -0.090499 0.073297
0.044269 -0.095432 0.074662
0.044013 -0.102368 0.073524
0.043482 -0.106349 0.071682
0.043571 -0.114489 0.067448
0.043610 -0.119167 0.061122
0.032410 -0.017674 -0.136542
0.039696 -0.074442 0.054357
0.039630 -0.078892 0.062920
0.039478 -0.083558 0.068287
0.038978 -0.089803 0.072162
0.038930 -0.095705 0.073589
0.039107 -0.101906 0.074034
0.039078 -0.107690 0.072381
0.038855 -0.113775 0.067653
0.025841 -0.011707 -0.135858
0.031517 -0.015608 -0.131665
0.034397 -0.023308 -0.133102
0.035034 -0.065294 0.039227
0.035531 -0.069052 0.050490
0.035711 -0.072945 0.059318
0.034823 -0.078836 0.066044
0.034775 -0.083765 0.069098
0.034740 -0.090311 0.071571
0.034637 -0.095819 0.072572
0.034507 -0.101584 0.073850
0.034276 -0.108325 0.072339
0.034974 -0.112841 0.064080
0.023907 -0.009482 -0.131095
0.025376 -0.015212 -0.099653
0.026519 -0.021392 -0.083104
0.030509 -0.029522 -0.095761
0.027626 -0.031134 -0.037665
0.029462 -0.037058 -0.031112
0.029370 -0.040905 -0.004392
0.028655 -0.048055 -0.008802
0.030296 -0.052078 0.006733
0.030623 -0.055014 0.026826
0.030189 -0.059223 0.040592
0.030564 -0.063592 0.048666
0.029933 -0.068851 0.059069
0.030547 -0.072962 0.063484
0.030117 -0.079001 0.067532
0.029871 -0.084187 0.069608
0.030022 -0.090325 0.071080
0.030199 -0.096044 0.071451
0.029754 -0.102039 0.071925
0.030860 -0.106828 0.072279
0.032932 -0.109750 0.067428
0.020080 -0.015138 -0.092844
0.023296 -0.016659 -0.016605
0.022553 -0.022193 0.000565
0.022779 -0.027843 0.006987
0.023243 -0.033426 0.012624
0.025248 -0.038446 0.014957
0.025617 -0.043592 0.021723
0.023859 -0.049669 0.033315
0.026199 -0.053323 0.036249
0.025414 -0.058442 0.047564
0.026652 -0.062183 0.051805
0.025154 -0.069518 0.062385
0.025519 -0.074202 0.065826
0.025357 -0.078697 0.067917
0.025852 -0.085013 0.069275
0.025864 -0.090541 0.069815
0.025903 -0.096276 0.069967
0.027359 -0.101181 0.070997
0.027468 -0.106844 0.068200
0.033754 -0.106519 0.072533
0.019071 -0.003759 -0.016320
0.018311 -0.009583 -0.000179
0.019125 -0.015264 0.003523
0.018476 -0.021339 0.010460
0.020562 -0.026405 0.011244
0.021273 -0.031698 0.015133
0.021179 -0.037094 0.021798
0.020734 -0.042526 0.029011
0.021312 -0.047221 0.033988
0.020650 -0.052819 0.044063
0.020693 -0.057853 0.050875
0.020700 -0.063031 0.056708
0.020711 -0.067556 0.060989
0.020833 -0.073996 0.065445
0.021200 -0.079624 0.067181
0.020481 -0.085121 0.067762
0.020916 -0.091010 0.067520
0.021574 -0.096806 0.066389
0.021923 -0.103360 0.060131
0.014365 0.008906 -0.015833
0.013960 0.002814 -0.002757
0.015365 -0.002711 0.000170
0.014947 -0.008785 0.006344
0.014410 -0.014971 0.011208
0.015614 -0.020250 0.013674
0.015826 -0.025901 0.017327
0.016228 -0.031228 0.021292
0.016898 -0.036030 0.025572
0.016135 -0.041800 0.032350
0.016024 -0.047156 0.038695
0.016114 -0.051966 0.045743
0.015981 -0.057972 0.052627
0.015967 -0.062570 0.056597
0.015931 -0.068376 0.060926
0.016485 -0.074324 0.064060
0.017114 -0.079837 0.065675
0.017595 -0.085502 0.065950
0.017931 -0.090911 0.065051
0.018661 -0.096540 0.061631
0.009411 0.021425 -0.014253
0.009733 0.015334 -0.005069
0.011537 0.009781 -0.003067
0.010991 0.003645 0.003146
0.010728 -0.002435 0.007407
0.010809 -0.008379 0.010719
0.010970 -0.014148 0.014308
0.011414 -0.019794 0.017189
0.011405 -0.025522 0.020666
0.012170 -0.030452 0.023395
0.011432 -0.036401 0.028958
0.011004 -0.042609 0.035298
0.011477 -0.046230 0.039814
0.011416 -0.054048 0.049182
0.011231 -0.057519 0.052438
0.011428 -0.063450 0.056456
0.011325 -0.068805 0.059632
0.012533 -0.074740 0.062156
0.012399 -0.080246 0.062618
0.012468 -0.086044 0.061746
0.013812 -0.091218 0.060351
-0.000859 0.032476 -0.055593
0.005358 0.027865 -0.007273
0.006015 0.021889 -0.000853
0.006649 0.015926 0.001807
0.007152 0.010066 0.004582
0.006783 0.003964 0.007816
0.005944 -0.002458 0.011066
0.006602 -0.007915 0.013430
0.006305 -0.014059 0.017227
0.006579 -0.019683 0.020107
0.006528 -0.025560 0.023317
0.007274 -0.030319 0.025795
0.006413 -0.037089 0.030881
0.006508 -0.042313 0.035647
0.006661 -0.048087 0.041655
0.006500 -0.052385 0.046622
0.006999 -0.058504 0.052111
0.007598 -0.064278 0.055863
0.008454 -0.069869 0.058489
0.007805 -0.075128 0.058846
0.008138 -0.080818 0.058579
0.009030 -0.086347 0.057781
0.002024 0.041044 -0.020136
0.001291 0.034150 -0.001146
0.000674 0.027740 0.004400
0.002318 0.022125 0.004918
0.001624 0.015775 0.007578
0.001847 0.009827 0.009177
0.002929 0.004304 0.010236
0.002195 -0.001872 0.012758
0.002212 -0.007544 0.015352
0.002537 -0.012710 0.018027
0.001381 -0.020527 0.022896
0.002475 -0.024359 0.024632
0.002227 -0.030518 0.027542
0.002008 -0.036368 0.031197
0.001912 -0.042378 0.035752
0.002020 -0.048073 0.040029
0.002424 -0.053714 0.045153
0.002650 -0.058992 0.049832
0.002656 -0.064343 0.052800
0.004693 -0.070034 0.056073
0.002795 -0.075798 0.054529
0.004178 -0.081310 0.054085
0.005248 -0.086498 0.050961
-0.002048 0.053272 -0.015050
-0.001688 0.046803 -0.003772
-0.002237 0.040375 0.003303
-0.002624 0.034129 0.006150
-0.001717 0.028182 0.007242
-0.002107 0.022017 0.009133
-0.002313 0.015919 0.010357
-0.002076 0.010003 0.011272
-0.001839 0.004179 0.012554
-0.001969 -0.001619 0.014142
-0.002751 -0.008061 0.016929
-0.002831 -0.014278 0.020289
-0.002723 -0.020121 0.023617
-0.002415 -0.024667 0.026110
-0.002538 -0.031185 0.028882
-0.002708 -0.036338 0.031717
-0.002142 -0.043297 0.035232
-0.002088 -0.048677 0.038358
-0.000521 -0.055108 0.043997
-0.001835 -0.059488 0.045944
-0.000275 -0.065112 0.050165
-0.000431 -0.070499 0.051330
-0.001098 -0.076454 0.050044
0.000022 -0.081878 0.047394
-0.007267 0.097561 -0.012562
-0.006362 0.090273 0.001245
-0.007423 0.083076 0.009421
-0.006825 0.076885 0.011370
-0.006311 0.070720 0.011342
-0.005437 0.064609 0.009604
-0.005981 0.058435 0.009050
-0.006626 0.052328 0.009517
-0.007600 0.046192 0.010687
-0.006431 0.040179 0.009690
-0.005612 0.034232 0.009759
-0.006512 0.027957 0.011181
-0.006434 0.021914 0.011807
-0.006480 0.015927 0.012346
-0.006910 0.009875 0.013102
-0.006987 0.003805 0.013857
-0.007430 -0.002400 0.014912
-0.007157 -0.007234 0.016842
-0.007232 -0.014616 0.020418
-0.007170 -0.019935 0.023972
-0.007014 -0.025931 0.026929
-0.007221 -0.031189 0.029031
-0.006670 -0.037688 0.031491
-0.006007 -0.043764 0.034064
-0.006568 -0.048893 0.036372
-0.005827 -0.054798 0.039312
-0.005215 -0.060389 0.042646
-0.005793 -0.065714 0.044291
-0.004057 -0.071174 0.046753
-0.004795 -0.077171 0.044487
-0.011664 0.110078 -0.007229
-0.011015 0.102745 0.003517
-0.011969 0.095289 0.010321
-0.010679 0.089551 0.011820
-0.011018 0.082938 0.015106
-0.011094 0.076603 0.016646
-0.011112 0.070379 0.017293
-0.010655 0.064269 0.016432
-0.010444 0.058145 0.015414
-0.010758 0.052102 0.014991
-0.010546 0.046033 0.014239
-0.010758 0.040036 0.014072
-0.010502 0.033936 0.013853
-0.010376 0.027868 0.013714
-0.011480 0.021768 0.013961
-0.011091 0.015739 0.013868
-0.011924 0.009652 0.014063
-0.011790 0.003681 0.014529
-0.011912 -0.002365 0.015184
-0.011936 -0.008282 0.016617
-0.012335 -0.013558 0.018879
-0.012064 -0.019600 0.022314
-0.011933 -0.025504 0.025475
-0.011286 -0.031837 0.028324
-0.011729 -0.037339 0.030090
-0.012048 -0.043184 0.031181
-0.010976 -0.049264 0.033265
-0.010305 -0.055127 0.035394
-0.010230 -0.060836 0.037349
-0.008915 -0.066406 0.040140
-0.008406 -0.072036 0.040778
-0.016099 0.117172 -0.010488
-0.015430 0.109401 0.004493
-0.015356 0.102331 0.009960
-0.016025 0.095086 0.014634
-0.015801 0.088797 0.017349
-0.014654 0.083104 0.018349
-0.014418 0.076827 0.019285
-0.013814 0.070497 0.019589
-0.014904 0.064073 0.020055
-0.014723 0.057958 0.019059
-0.015623 0.051990 0.018793
-0.015456 0.045909 0.018064
-0.015325 0.039821 0.017431
-0.014786 0.033582 0.016386
-0.015096 0.027455 0.015620
-0.016036 0.021667 0.015303
-0.016134 0.015608 0.014877
-0.016363 0.009687 0.014479
-0.016367 0.003595 0.014573
-0.016138 -0.002640 0.014996
-0.016767 -0.008245 0.015776
-0.016371 -0.014384 0.017626
-0.016025 -0.020434 0.020416
-0.016114 -0.026114 0.023312
-0.015205 -0.032274 0.026390
-0.015049 -0.038016 0.028011
-0.015708 -0.043729 0.028770
-0.014752 -0.049643 0.030396
-0.013595 -0.055601 0.032232
-0.013018 -0.061421 0.033899
-0.013218 -0.067034 0.033281
-0.014426 -0.073776 0.017759
-0.020584 0.115367 0.003734
-0.020326 0.108354 0.010268
-0.020016 0.101854 0.013960
-0.019704 0.095545 0.016930
-0.019257 0.089389 0.019257
-0.020113 0.082458 0.021199
-0.020125 0.076227 0.022659
-0.018945 0.070360 0.022688
-0.019627 0.063951 0.023043
-0.020233 0.057938 0.022602
-0.020232 0.051899 0.021595
-0.020644 0.046045 0.020504
-0.019589 0.039428 0.019073
-0.020508 0.033852 0.018273
-0.020651 0.027836 0.017102
-0.020717 0.021796 0.016043
-0.020827 0.015475 0.014884
-0.020760 0.009722 0.014371
-0.020677 0.003621 0.014321
-0.020990 -0.002488 0.014366
-0.021335 -0.008531 0.014387
-0.020157 -0.014825 0.015912
-0.020206 -0.020737 0.017885
-0.020453 -0.026501 0.019982
-0.019370 -0.032491 0.023226
-0.019611 -0.038279 0.024316
-0.019592 -0.044125 0.025089
-0.017599 -0.049892 0.027019
-0.018517 -0.056038 0.025917
-0.018416 -0.062012 0.024939
-0.025819 0.122200 -0.005941
-0.024668 0.115818 0.006327
-0.024603 0.108436 0.012774
-0.024377 0.101898 0.016498
-0.023913 0.095775 0.018894
-0.024674 0.088518 0.021547
-0.023648 0.083161 0.022657
-0.024418 0.076251 0.024313
-0.024601 0.069977 0.025332
-0.024213 0.063871 0.025242
-0.023585 0.057379 0.024315
-0.024398 0.051584 0.023032
-0.024352 0.045470 0.021497
-0.024821 0.039648 0.020231
-0.025050 0.033882 0.018994
-0.025142 0.028186 0.017498
-0.025201 0.021771 0.016054
-0.025353 0.015586 0.014721
-0.025225 0.009671 0.013798
-0.025561 0.003432 0.013292
-0.026132 -0.002731 0.012880
-0.025714 -0.008707 0.012856
-0.025269 -0.014788 0.013248
-0.025207 -0.020797 0.014685
-0.024475 -0.026889 0.016336
-0.024523 -0.032757 0.018132
-0.023791 -0.038620 0.020186
-0.022916 -0.044473 0.021120
-0.024174 -0.050806 0.019020
-0.021681 -0.056244 0.020873
-0.021740 -0.062121 0.018223
-0.030204 0.121843 -0.000796
-0.029979 0.113982 0.010314
-0.029212 0.108721 0.014412
-0.028789 0.102575 0.017940
-0.029646 0.094335 0.021330
-0.029265 0.088548 0.023022
-0.029242 0.082331 0.024619
-0.028565 0.076603 0.025873
-0.029034 0.069985 0.026843
-0.029391 0.063786 0.026900
-0.029434 0.057756 0.025795
-0.029570 0.051910 0.023987
-0.029652 0.045919 0.021968
-0.029778 0.039569 0.020326
-0.029947 0.033450 0.018614
-0.029766 0.028054 0.017069
-0.029788 0.021965 0.015158
-0.030150 0.015578 0.013524
-0.030465 0.009344 0.012519
-0.029251 0.003789 0.012118
-0.029526 -0.002532 0.011344
-0.028718 -0.008713 0.011202
-0.029413 -0.014934 0.011306
-0.028968 -0.021061 0.012266
-0.029483 -0.027103 0.012660
-0.028003 -0.033021 0.014872
-0.027774 -0.038984 0.015542
-0.027263 -0.044849 0.015797
-0.028344 -0.051213 0.013643
-0.027427 -0.056998 0.012831
-0.027789 -0.062829 0.005648
-0.034646 -0.087272 -0.102285
-0.034187 0.123104 0.000044
-0.033988 0.115355 0.010691
-0.033894 0.108198 0.016169
-0.033760 0.101590 0.019770
-0.033895 0.094701 0.022412
-0.033718 0.088819 0.024065
-0.033797 0.082252 0.025750
-0.033753 0.076131 0.026993
-0.033884 0.069779 0.027772
-0.033871 0.063633 0.027375
-0.033961 0.057698 0.026034
-0.034039 0.051901 0.023997
-0.034024 0.046218 0.021943
-0.034335 0.039673 0.019723
-0.033727 0.034774 0.017883
-0.033719 0.028651 0.016321
-0.034451 0.021742 0.013933
-0.034233 0.015833 0.012234
-0.033386 0.010101 0.011443
-0.033936 0.003613 0.010106
-0.033421 -0.002461 0.009525
-0.034248 -0.008918 0.008402
-0.033867 -0.015075 0.008332
-0.034260 -0.021262 0.008401
-0.033718 -0.027330 0.009461
-0.033268 -0.033384 0.009762
-0.034374 -0.039910 0.007267
-0.030545 -0.045090 0.011960
-0.032401 -0.051737 0.007506
-0.031577 -0.057633 0.005906
-0.039122 -0.089117 -0.114165
-0.037968 0.125984 -0.000528
-0.038444 0.116089 0.011717
-0.038545 0.108061 0.017198
-0.038592 0.100129 0.021358
-0.038316 0.095299 0.023140
-0.038390 0.088347 0.025023
-0.038416 0.082053 0.026250
-0.038373 0.075823 0.027203
-0.038347 0.069772 0.027589
-0.038449 0.063743 0.027005
-0.038489 0.057755 0.025627
-0.038287 0.052292 0.023658
-0.038457 0.046177 0.021162
-0.038439 0.040262 0.018831
-0.038171 0.034527 0.016970
-0.038409 0.028211 0.014651
-0.038022 0.022444 0.012675
-0.039083 0.015569 0.010034
-0.038006 0.009989 0.009175
-0.039006 0.003283 0.007170
-0.037055 -0.002268 0.007415
-0.037858 -0.008826 0.005331
-0.037395 -0.015111 0.005449
-0.036535 -0.021130 0.006285
-0.037569 -0.027550 0.005024
-0.036751 -0.033631 0.005137
-0.035976 -0.039685 0.004416
-0.035966 -0.046116 0.003105
-0.043157 -0.090883 -0.120997
-0.043593 0.127906 0.001047
-0.043455 0.121549 0.008168
-0.043223 0.112904 0.014626
-0.043189 0.107796 0.017946
-0.043039 0.100709 0.021509
-0.042937 0.094190 0.023454
-0.042819 0.087761 0.025062
-0.042930 0.082029 0.026154
-0.042786 0.075785 0.026684
-0.043234 0.069816 0.026605
-0.043032 0.063762 0.026038
-0.043001 0.057843 0.024392
-0.043663 0.051240 0.021974
-0.042497 0.046638 0.020095
-0.042991 0.040169 0.017245
-0.042121 0.034908 0.015370
-0.043005 0.028061 0.012104
-0.043329 0.021780 0.009567
-0.042768 0.015914 0.007811
-0.041521 0.010302 0.007133
-0.042480 0.003576 0.004793
-0.042651 -0.002785 0.002491
-0.042362 -0.009110 0.000786
-0.043985 -0.015981 -0.003593
-0.042166 -0.021792 -0.001319
-0.042432 -0.028227 -0.003563
-0.040607 -0.033871 -0.002071
-0.047104 -0.092821 -0.125599
-0.048558 0.134001 -0.003593
-0.048275 0.126532 0.004308
-0.047969 0.119258 0.010058
-0.047918 0.113262 0.013971
-0.047770 0.106680 0.018288
-0.047917 0.100985 0.021008
-0.048009 0.094849 0.023074
-0.047733 0.088174 0.024552
-0.047804 0.082107 0.025403
-0.047747 0.075938 0.025732
-0.047533 0.069878 0.025503
-0.047681 0.063877 0.024558
-0.047604 0.058000 0.022934
-0.047664 0.052070 0.020722
-0.047382 0.046420 0.017797
-0.047365 0.040483 0.014744
-0.046571 0.034890 0.012558
-0.046135 0.028938 0.010015
-0.047147 0.022165 0.006474
-0.047016 0.015964 0.004508
-0.047626 0.009420 0.001368
-0.046790 0.003451 -0.000050
-0.046650 -0.002821 -0.002781
-0.044694 -0.008617 -0.002677
-0.044774 -0.015310 -0.005975
-0.044353 -0.021735 -0.007147
-0.047383 -0.028948 -0.011306
-0.054051 0.141243 -0.017908
-0.053017 0.134095 -0.004636
-0.052614 0.126569 0.003208
-0.052595 0.120278 0.007875
-0.052340 0.113290 0.012855
-0.052217 0.106751 0.017231
-0.052274 0.100647 0.020147
-0.052161 0.094273 0.022451
-0.052273 0.088216 0.023359
-0.051991 0.081959 0.024153
-0.053284 0.076148 0.023689
-0.052537 0.069914 0.023580
-0.051902 0.064067 0.022861
-0.051830 0.058207 0.021409
-0.050584 0.053263 0.019963
-0.050874 0.047204 0.016392
-0.051952 0.040424 0.011002
-0.051712 0.034459 0.006702
-0.050792 0.028546 0.004885
-0.051455 0.022012 0.000588
-0.049829 0.016416 0.000572
-0.049532 0.010142 -0.001401
-0.048489 0.004046 -0.002734
-0.049678 -0.002795 -0.010032
-0.059001 0.152162 -0.039310
-0.058318 0.142506 -0.021606
-0.057053 0.133526 -0.006169
-0.055137 0.124072 0.002614
-0.056193 0.119214 0.005448
-0.056768 0.113530 0.009768
-0.058181 0.109123 0.012824
-0.056292 0.100168 0.018981
-0.056099 0.093895 0.021025
-0.056173 0.088002 0.021844
-0.055678 0.081873 0.022491
-0.056627 0.076094 0.022019
-0.055675 0.070218 0.021996
-0.056786 0.064037 0.020529
-0.056134 0.058344 0.019285
-0.055711 0.052796 0.016546
-0.055517 0.047127 0.012309
-0.055103 0.041237 0.007055
-0.054206 0.035298 0.003282
-0.053572 0.029142 0.000045
-0.054394 0.022406 -0.005159
-0.055845 0.015531 -0.011027
-0.056378 0.009009 -0.014475
-0.064045 0.162067 -0.057832
-0.063736 0.149026 -0.034734
-0.062301 0.140358 -0.023015
-0.061663 0.139976 -0.021535
-0.060965 0.127684 -0.010175
-0.062964 0.123173 -0.011524
-0.061425 0.114285 0.003963
-0.061595 0.107687 0.011765
-0.061372 0.101000 0.016073
-0.060319 0.094053 0.018939
-0.059986 0.087920 0.019843
-0.060662 0.082223 0.019679
-0.059763 0.076191 0.020015
-0.059278 0.070464 0.019853
-0.059944 0.064534 0.018718
-0.060319 0.058635 0.016021
-0.060197 0.053007 0.011711
-0.059443 0.047458 0.006240
-0.060184 0.041065 -0.003488
-0.068326 0.159790 -0.049361
-0.067592 0.149901 -0.038782
-0.067192 0.143728 -0.032942
-0.066951 0.137143 -0.029618
-0.065181 0.107123 0.008739
-0.065655 0.101116 0.012701
-0.064171 0.094044 0.016290
-0.066254 0.088818 0.015398
-0.065059 0.082457 0.016614
-0.065334 0.076491 0.015533
-0.063266 0.070555 0.016761
-0.064172 0.064797 0.013829
-0.062950 0.059571 0.012540
-0.064661 0.053362 0.001113
-0.072683 0.159564 -0.051621
-0.071776 0.151844 -0.044041
-0.072195 0.147927 -0.042025
-0.069392 0.107397 0.003674
-0.067523 0.099879 0.011284
-0.069054 0.094835 0.011298
-0.068617 0.088731 0.012480
-0.069122 0.082834 0.011495
-0.068135 0.076741 0.012159
-0.068381 0.071071 0.009357
-0.067187 0.065607 0.008330
-0.075672 0.160738 -0.055814
-0.076831 0.158951 -0.056795
-0.073920 0.108372 -0.004975
-0.072304 0.100918 0.005189
-0.074562 0.095818 0.003112
-0.070507 0.088758 0.009701
-0.072520 0.083380 0.004985
-0.070740 0.077213 0.007593
-0.075001 0.065295 -0.005790
-0.077081 0.102149 -0.003319
-0.075961 0.095579 -0.000349
-0.078074 0.090401 -0.005824
-0.078846 0.084414 -0.009174
-0.086525 0.102915 -0.077365
-0.088241 0.077766 -0.119248
-0.089294 0.074195 -0.137009
-0.091020 0.096115 -0.078932
-0.091143 0.089432 -0.082435
-0.092857 0.078533 -0.118483
-0.092884 0.074476 -0.134809
-0.095563 0.076243 -0.124118
-0.089566 0.074642 -0.127628
-0.085443 0.080925 -0.106731
-0.087045 0.077969 -0.119952
-0.087293 0.074024 -0.134645
-0.086516 0.089843 -0.076973
-0.083832 0.079604 -0.115175
-0.082481 0.097292 -0.073664
-0.081942 0.092156 -0.076536
-0.080286 0.083020 -0.133406
-0.074411 0.164436 -0.063437
-0.070923 0.164401 -0.059152
-0.070844 0.082449 -0.080816
-0.070777 0.163384 -0.055630
-0.070788 0.158345 -0.048758
-0.079094 0.092373 -0.007041
-0.075625 0.085606 -0.003730
-0.067245 0.161806 -0.052642
-0.066400 0.158036 -0.046596
-0.067708 0.149283 -0.038082
-0.074388 0.105848 -0.001524
-0.074382 0.098369 0.002686
-0.075195 0.092049 0.000698
-0.074537 0.085344 0.000812
-0.074598 0.078789 -0.002521
-0.063518 0.154788 -0.042637
-0.063181 0.149698 -0.035520
-0.059462 0.147813 -0.032179
-0.068472 0.112026 -0.002190
-0.070269 0.104965 0.005681
-0.070963 0.098236 0.008264
-0.071933 0.091757 0.007475
-0.071255 0.084937 0.008297
-0.071651 0.078370 0.006198
-0.069767 0.072119 0.007493
