# .PCD v0.7 - Point Cloud Data file format
VERSION 0.7
FIELDS x y z
SIZE 4 4 4
TYPE F F F
COUNT 1 1 1
WIDTH 1369
HEIGHT 1
VIEWPOINT 0 0 0 1 0 0 0
POINTS 1369
DATA ascii
-0.04445301 0.107256 0.071415
0.045823008 -0.08919999 0.024467001
0.053984009 -0.084352992 0.023050001
0.047424007 -0.077647991 0.025769999
0.045831006 -0.071555994 0.025842
0.052733008 -0.065952994 0.022768
0.057305004 -0.060402997 0.019216999
-0.011948005 0.068781003 0.059882998
-0.025450006 0.073293 0.065343
-0.025683008 0.077542 0.067441002
-0.028297007 0.082656004 0.068911999
-0.032738008 0.087612003 0.070611998
-0.048740007 0.090959996 0.074167997
-0.045419008 0.096099995 0.074107997
-0.037402008 0.103237 0.073661
-0.03751301 0.108451 0.072476
-0.019278007 0.078979 0.066505
-0.025246007 0.083784997 0.068847999
-0.027961008 0.088674001 0.070101999
-0.043004006 0.09239199 0.072864003
-0.044005007 0.096218996 0.073936999
-0.033528008 0.103422 0.073624998
-0.03479401 0.107731 0.073027
-0.032518011 0.107541 0.073957004
0.027635008 -0.087165996 0.022933001
0.031932008 -0.072701998 0.027108001
0.041857008 -0.070185997 0.026991
0.017755007 -0.091518998 0.017418999
0.019972006 -0.069916002 0.023141
0.025906006 -0.060634997 0.025668001
0.035060003 -0.057017997 0.025953
0.044621002 -0.054729998 0.022922
0.011286006 -0.071323998 0.017074
0.015896006 -0.056889001 0.019314
0.021604003 -0.052437995 0.022304
0.031017004 -0.049976997 0.023545001
0.040069003 -0.046299998 0.020916
0.050898004 -0.047348995 0.016741
0.007445008 -0.089721002 0.0058019999
0.012335004 -0.054242998 0.016535999
0.017547004 -0.043644998 0.018592
0.025111003 -0.039237995 0.020176001
0.035436004 -0.038044997 0.019122001
0.045441005 -0.037699997 0.014722
0.0041540065 -0.074157 0.0051270002
-0.051427007 0.092174992 0.073371999
0.0094700037 -0.045136001 0.012806
0.013700004 -0.037845999 0.016030001
0.019333001 -0.027413998 0.016855
-0.028761009 0.100106 0.071021996
0.038577005 -0.025788996 0.013854
0.0030050061 -0.069519997 0.001786
-0.052484006 0.091694996 0.070776001
-0.023024006 0.059201997 0.050384998
-0.035504006 0.099633001 0.073689997
-0.032499012 0.110021 0.072127998
0.032726001 -0.015272997 0.012697
0.053603005 -0.032472998 0.002259
0.0028700056 -0.065154999 -0.002108
-0.055187009 0.091101989 0.067855
-0.052588008 0.094143994 0.073310003
-0.045517009 0.10043599 0.073830001
-0.039698012 0.107415 0.072451003
-0.034067012 0.111733 0.069771998
-0.010822007 0.087489001 0.059494998
0.041568 -0.010901996 0.0074900002
0.0024590066 -0.075774997 -0.012495
-0.056096006 0.104284 0.070059001
-0.049416009 0.10818699 0.070785001
-0.043103009 0.11320599 0.068736002
-0.034124013 0.1131 0.066480003
-0.020441009 0.101929 0.058203001
-0.0046750074 0.087761998 0.048439998
0.0021750068 -0.075944997 -0.01902
-0.063942008 0.10381699 0.065650001
-0.059229013 0.10906799 0.0678
-0.052310012 0.11376599 0.067497998
-0.045191012 0.116547 0.065389
-0.034447011 0.114793 0.061967999
-0.024439009 0.105885 0.054439001
-0.011094009 0.093125001 0.045501001
0.020983996 0.050446998 0.023119001
-0.066558011 0.10756699 0.062550999
-0.06138001 0.11411499 0.063565999
-0.054559011 0.11748599 0.064242996
-0.046596013 0.11959499 0.062403001
-0.038183011 0.117587 0.057615999
-0.02497601 0.105712 0.048888002
-0.011090009 0.093543001 0.039948002
-0.068684004 0.11360699 0.058984
-0.063961007 0.11799999 0.060573999
-0.057504009 0.12185899 0.059117001
-0.05090601 0.12308199 0.057326
-0.04075101 0.119346 0.053277001
-0.012288009 0.093947999 0.034662999
-0.071804009 0.11682099 0.056660999
-0.066397004 0.12237799 0.057190999
-0.059299011 0.12455099 0.056214001
-0.049876012 0.124502 0.05376
-0.04220501 0.120713 0.048788
-0.012737009 0.093181998 0.02844
-0.074832007 0.12144899 0.054152001
-0.068857007 0.126156 0.054019999
-0.060844012 0.127085 0.052963
-0.053304013 0.12657 0.049106002
-0.042542011 0.121396 0.043620002
-0.013223008 0.091816999 0.023080001
-0.0019590075 0.086473003 0.016659001
0.013244993 0.074754 0.0069670002
-0.077826008 0.12439099 0.051890999
-0.071200013 0.12978201 0.050760999
-0.063434012 0.130445 0.049180001
-0.056170013 0.128966 0.045302998
-0.0027860075 0.085583001 0.011152
0.010288994 0.078290001 0.003336
-0.080295011 0.129933 0.048854001
-0.073629014 0.133542 0.047626
-0.064901017 0.133059 0.045839
-0.05525801 0.130144 0.040599
-0.020883007 0.086416997 0.011702
-0.0026480074 0.085092001 0.004152
0.0082929926 0.080689996 -0.001226
-0.08142601 0.11696299 0.037783999
-0.083021015 0.132495 0.045910999
-0.076538011 0.136969 0.043039002
-0.066785015 0.135848 0.043267
-0.024898008 0.082327001 0.0099099996
-0.020943008 0.084367998 0.005138
-0.012988008 0.086098999 0.001065
-0.0023850072 0.082979001 -0.0031649999
0.0079029929 0.080274001 -0.0075989999
-0.088639006 0.12697199 0.03929
-0.085481018 0.13549699 0.042365
-0.077953018 0.14014301 0.040532999
-0.024257008 0.075940996 -0.00084599998
-0.020679008 0.082722001 -0.00042500001
-0.0029750071 0.080903001 -0.0092519997
0.007184993 0.079291001 -0.014
0.017454993 0.07638 -0.018563
-0.090128005 0.12748799 0.034547001
-0.084270015 0.139901 0.037602
-0.080015019 0.14256699 0.037214
-0.025432006 0.061951995 -0.01143
-0.022643005 0.069279999 -0.010727
-0.018217007 0.075724997 -0.0099769998
-0.011053006 0.077489004 -0.013452
-0.002760007 0.078594998 -0.016588001
0.0062529929 0.078869 -0.019915
0.015340993 0.078018002 -0.023178
-0.08977101 0.12481499 0.027671
-0.086529016 0.14070198 0.033746
-0.080757014 0.144904 0.032556999
-0.029203003 0.047637995 -0.024770999
-0.025958005 0.057768997 -0.020904999
-0.022673005 0.065237001 -0.019832
-0.017243005 0.071248002 -0.018996
-0.010796007 0.074904002 -0.020946
-0.0030290068 0.077293999 -0.023518
0.0053829928 0.078488998 -0.025859
0.014088994 0.0792 -0.028681001
0.025885992 0.076553002 -0.038678002
-0.088513017 0.14188999 0.029339001
-0.029599003 0.046162996 -0.031376
-0.027171006 0.056362998 -0.027752999
-0.022615006 0.064268999 -0.025521001
-0.017839005 0.068472996 -0.027765
-0.011023006 0.073895998 -0.026622999
-0.0037710068 0.077014998 -0.02984
0.0046429932 0.078824997 -0.032182001
0.012810994 0.079897001 -0.034060001
0.025102995 0.073310003 -0.039011002
0.022511011 -0.11875 -0.130505
-0.028460003 0.039667998 -0.040520001
-0.028268006 0.055798996 -0.033952001
-0.024381006 0.062451996 -0.033599999
-0.019098006 0.067050003 -0.035833001
-0.011595006 0.072715998 -0.033712
-0.0046130065 0.076765001 -0.035241
0.0030139929 0.078856997 -0.036741
-0.020288002 0.020864999 -0.060674001
-0.028420005 0.054297995 -0.040019002
-0.023869006 0.062172998 -0.038187001
-0.018458005 0.067038998 -0.039462999
-0.012214007 0.071851 -0.040610999
-0.0053500067 0.076504 -0.041219
0.002694993 0.078659996 -0.044165
0.024548994 0.071289003 -0.056480002
-0.026255004 0.052101996 -0.046321999
-0.024122005 0.060200997 -0.045086
-0.018518006 0.065374002 -0.045786001
-0.012534006 0.070648998 -0.046895999
-0.0062220064 0.076004997 -0.048213001
0.019084994 0.062623002 -0.063371003
0.026234994 0.069960997 -0.061900001
0.026643995 0.069920003 -0.070840999
-0.024876004 0.043585997 -0.060215998
-0.021882003 0.049382996 -0.060534
0.026257994 0.069715001 -0.068400003
0.031881992 0.074143 -0.070138998
-0.026041003 0.042198997 -0.067720003
-0.023035003 0.046731997 -0.068690002
0.027376994 0.069072001 -0.075861
0.030699993 0.075370997 -0.075847
-0.025701003 0.040806998 -0.075487003
-0.021854004 0.044873998 -0.075680003
0.028280994 0.067589 -0.083276004
0.031980991 0.077913001 -0.08004
-0.027061004 0.035307996 -0.085088998
-0.023904003 0.039748996 -0.085881002
0.030775992 0.078327 -0.085998997
0.031092992 0.082009003 -0.088891
-0.027306003 0.034725998 -0.091907002
-0.023902005 0.037798997 -0.093575999
0.030393992 0.078566998 -0.092371002
0.033231992 0.086714998 -0.090767004
-0.028449005 0.033229996 -0.099054001
-0.024508003 0.036654998 -0.100792
0.030894995 0.073798999 -0.102912
0.033595994 0.085667998 -0.097121999
-0.029613003 0.032760996 -0.106438
0.032257993 0.081772 -0.108427
-0.031173002 0.030940998 -0.114034
0.033458993 0.083208002 -0.112924
0.037496991 0.088018 -0.114601
-0.032657005 0.026263997 -0.123883
0.033617992 0.082658 -0.120356
0.037824992 0.089218996 -0.120285
-0.032724004 0.028359996 -0.129218
0.035157993 0.081423998 -0.129613
0.036876991 0.090273 -0.12628099
0.035334993 0.092091002 -0.13305999
0.041946992 0.092518002 -0.136683
-0.086886011 0.12685199 0.043196999
-0.084422015 0.133013 0.044762
-0.081852004 0.11885499 0.045063
-0.079733007 0.124828 0.051015001
-0.077464014 0.129738 0.050094001
-0.080363013 0.142869 0.037562001
-0.074809007 0.11200099 0.051107001
-0.075589009 0.11786399 0.053440999
-0.074381009 0.123891 0.053711001
-0.074323013 0.13144 0.049732
-0.073559016 0.13850801 0.04222
-0.071943007 0.10559999 0.049332999
-0.071819007 0.11096599 0.056111
-0.071035005 0.11726699 0.057209
-0.068773009 0.12206699 0.056387
-0.069329016 0.129804 0.050921001
-0.067741007 0.098653995 0.052870002
-0.068059005 0.10408999 0.059928998
-0.069504008 0.11082699 0.059083
-0.065458007 0.11602499 0.060516
-0.065386005 0.12287799 0.057061002
-0.065121017 0.130592 0.049550001
-0.062331006 0.092179991 0.056293
-0.061744008 0.097029991 0.066142
-0.062977009 0.103044 0.066857003
-0.062203012 0.10959499 0.065728001
-0.06180501 0.11668699 0.061949998
-0.06098301 0.12262899 0.058028001
-0.060646012 0.130971 0.045279
-0.058174007 0.090571992 0.063749999
-0.056978006 0.096218996 0.070609003
-0.059256006 0.10310799 0.069508001
-0.057845011 0.10945199 0.068239003
-0.056536011 0.11423599 0.065571003
-0.056518011 0.12174999 0.059480999
-0.056772012 0.13133 0.039069001
-0.053738009 0.085080996 0.056384999
-0.051948007 0.090643995 0.072229996
-0.053687006 0.095832996 0.072995998
-0.052304007 0.10144399 0.071832001
-0.05277301 0.10851999 0.069995999
-0.052172013 0.11319499 0.067809001
-0.052198011 0.12113299 0.060254999
-0.048932008 0.084245995 0.063827001
-0.048946008 0.090098992 0.074266002
-0.049259007 0.09545999 0.074465998
-0.047990009 0.101221 0.072806999
-0.047593009 0.10613099 0.071110003
-0.04801001 0.114485 0.067441002
-0.04790701 0.11850199 0.063504003
-0.044610009 0.079217993 0.057493001
-0.044135008 0.08405599 0.066949002
-0.043817006 0.090498991 0.073297001
-0.044269007 0.095431991 0.074662
-0.044013008 0.10236799 0.073523998
-0.043482006 0.10634899 0.071681999
-0.04357101 0.11448899 0.067447998
-0.04361001 0.11916699 0.061122
-0.03241 0.017673995 -0.13654201
-0.039696008 0.074441999 0.054357
-0.039630007 0.078892 0.062919997
-0.039478008 0.083558001 0.068287
-0.038978007 0.089803003 0.072162002
-0.038930006 0.095705003 0.073588997
-0.039107006 0.101906 0.074033998
-0.039078012 0.10769 0.072380997
-0.038855013 0.113775 0.067653
-0.025841001 0.011706999 -0.135858
-0.031516999 0.015607997 -0.13166501
-0.034397002 0.023307996 -0.133102
-0.035034008 0.065293998 0.039227001
-0.035531007 0.069052003 0.050489999
-0.035711009 0.072944999 0.059317999
-0.034823008 0.078836001 0.066044003
-0.034775008 0.083765 0.069098003
-0.034740008 0.090310998 0.071571
-0.034637008 0.095818996 0.072572
-0.034507006 0.101584 0.073849998
-0.034276012 0.108325 0.072338998
-0.034974013 0.112841 0.06408
-0.023907 0.0094819982 -0.13109501
-0.025376001 0.015211998 -0.099652998
-0.026519002 0.021391999 -0.083103999
-0.030509003 0.029521998 -0.095761001
-0.027626002 0.031133998 -0.037664998
-0.029462004 0.037057996 -0.031112
-0.029370004 0.040904995 -0.0043919999
-0.028655004 0.048054997 -0.0088020004
-0.030296003 0.052077997 0.0067329998
-0.030623006 0.055013996 0.026826
-0.030189006 0.059222996 0.040592
-0.030564006 0.063592002 0.048666
-0.029933006 0.068851002 0.059069
-0.030547006 0.072962001 0.063483998
-0.030117007 0.079001002 0.067532003
-0.029871007 0.084187001 0.069608003
-0.030022008 0.090324998 0.071079999
-0.03019901 0.096043997 0.071451001
-0.029754009 0.102039 0.071924999
-0.030860009 0.106828 0.072278999
-0.03293201 0.10975 0.067428
-0.020080002 0.015137998 -0.092844002
-0.023296002 0.016658999 -0.016604999
-0.022553002 0.022192998 0.00056499999
-0.022779003 0.027842999 0.0069869999
-0.023243004 0.033425998 0.012624
-0.025248004 0.038445998 0.014957
-0.025617003 0.043591995 0.021723
-0.023859004 0.049668998 0.033314999
-0.026199006 0.053322997 0.036249001
-0.025414005 0.058441997 0.047564
-0.026652006 0.062182996 0.051805001
-0.025154006 0.069518 0.062385
-0.025519006 0.074202001 0.065825999
-0.025357008 0.078697003 0.067916997
-0.025852008 0.085013002 0.069274999
-0.025864007 0.090540998 0.069815002
-0.025903009 0.096276 0.069967002
-0.027359009 0.101181 0.070997
-0.027468009 0.106844 0.0682
-0.033754006 0.106519 0.072532997
-0.019071 0.0037589984 -0.016319999
-0.018310999 0.0095829982 -0.000179
-0.019125002 0.015263998 0.0035230001
-0.018476002 0.021338997 0.01046
-0.020562002 0.026404997 0.011244
-0.021273002 0.031698 0.015133
-0.021179004 0.037094001 0.021798
-0.020734003 0.042525999 0.029011
-0.021312004 0.047220998 0.033987999
-0.020650003 0.052818999 0.044062998
-0.020693006 0.057852998 0.050875001
-0.020700006 0.063031003 0.056708001
-0.020711005 0.067556001 0.060989
-0.020833006 0.073996 0.065444998
-0.021200007 0.079623997 0.067180999
-0.020481007 0.085120998 0.067762002
-0.020916007 0.091009997 0.06752
-0.021574009 0.096805997 0.066389002
-0.021923009 0.10336 0.060130998
-0.014364999 -0.0089060012 -0.015833
-0.01396 -0.0028140012 -0.002757
-0.015365 0.0027109985 0.00017
-0.014947001 0.0087849991 0.0063439999
-0.014410001 0.014970999 0.011208
-0.015614002 0.020249998 0.013674
-0.015826002 0.025900997 0.017326999
-0.016228002 0.031227998 0.021291999
-0.016898004 0.036029998 0.025572
-0.016135003 0.0418 0.03235
-0.016024003 0.047155999 0.038695
-0.016114004 0.051966 0.045743
-0.015981006 0.057971999 0.052627001
-0.015967006 0.062569998 0.056597002
-0.015931005 0.068375997 0.060926002
-0.016485006 0.074323997 0.064060003
-0.017114008 0.079837002 0.065674998
-0.017595008 0.085501999 0.065949999
-0.017931007 0.090911001 0.065050997
-0.018661009 0.096539997 0.061631002
-0.0094109979 -0.021424999 -0.014253
-0.0097329989 -0.015334001 -0.0050690002
-0.011536999 -0.0097810011 -0.0030670001
-0.010991 -0.003645001 0.003146
-0.010728 0.002434999 0.0074069998
-0.010809001 0.0083789993 0.010719
-0.010970001 0.014147999 0.014308
-0.011414002 0.019793998 0.017189
-0.011405002 0.025521997 0.020666
-0.012170003 0.030451998 0.023395
-0.011432003 0.036401 0.028958
-0.011004004 0.042608999 0.035298001
-0.011477004 0.04623 0.039813999
-0.011416005 0.054048002 0.049182002
-0.011231004 0.057519 0.052437998
-0.011428006 0.063450001 0.056456
-0.011325005 0.068805002 0.059632
-0.012533006 0.07474 0.062155999
-0.012399008 0.080246001 0.062618002
-0.012468007 0.086043999 0.061746001
-0.013812008 0.091218002 0.060350999
0.00085900287 -0.032476 -0.055592999
-0.0053579975 -0.027865 -0.0072730002
-0.0060149981 -0.021888999 -0.00085299998
-0.0066489987 -0.015926 0.001807
-0.007151999 -0.010066001 0.004582
-0.0067829997 -0.0039640004 0.0078159999
-0.0059440001 0.0024579996 0.011066
-0.0066020004 0.0079149995 0.01343
-0.0063050012 0.014058999 0.017227
-0.0065790019 0.019683 0.020106999
-0.0065280022 0.025560001 0.023317
-0.0072740028 0.030319 0.025795
-0.0064130034 0.037089001 0.030881001
-0.0065080039 0.042312998 0.035647001
-0.0066610044 0.048087001 0.041655
-0.0065000048 0.052384999 0.046622001
-0.0069990051 0.058504 0.052111
-0.0075980057 0.064277999 0.055863
-0.0084540062 0.069868997 0.058488999
-0.0078050066 0.075127997 0.058846001
-0.0081380075 0.080817997 0.058579002
-0.0090300078 0.086346999 0.057781
-0.0020239966 -0.041044001 -0.020136001
-0.001290997 -0.034150001 -0.001146
-0.00067399757 -0.02774 0.0044
-0.0023179981 -0.022125 0.0049180002
-0.0016239986 -0.015775001 0.007578
-0.0018469992 -0.0098270001 0.0091770003
-0.0029289995 -0.0043040006 0.010236
-0.0021950002 0.0018719998 0.012758
-0.0022120008 0.0075440002 0.015352
-0.0025370012 0.01271 0.018027
-0.0013810018 0.020527 0.022895999
-0.0024750021 0.024359001 0.024631999
-0.0022270025 0.030517999 0.027542001
-0.0020080032 0.036368001 0.031197
-0.0019120037 0.042378001 0.035751998
-0.0020200042 0.048073001 0.040029
-0.0024240047 0.053714 0.045152999
-0.002650005 0.058991998 0.049832001
-0.0026560056 0.064342998 0.0528
-0.0046930062 0.070033997 0.056072999
-0.0027950066 0.075797997 0.054529
-0.0041780071 0.081309997 0.054085001
-0.0052480074 0.086498 0.050960999
0.0020480047 -0.053272001 -0.01505
0.0016880041 -0.046803001 -0.0037720001
0.0022370035 -0.040375002 0.003303
0.002624003 -0.034129001 0.0061499998
0.0017170025 -0.028182 0.0072420002
0.0021070018 -0.022017 0.0091329999
0.0023130013 -0.015919 0.010357
0.0020760009 -0.010003 0.011272
0.0018390004 -0.0041789999 0.012554
0.0019689999 0.0016190001 0.014142
0.0027509993 0.0080610001 0.016929001
0.0028309987 0.014278 0.020289
0.0027229981 0.020121001 0.023616999
0.0024149979 0.024667 0.026110001
0.0025379972 0.031184999 0.028882001
0.0027079966 0.036338001 0.031716999
0.0021419963 0.043297 0.035232
0.0020879959 0.048677001 0.038357999
0.00052099518 0.055108 0.043997001
0.0018349948 0.059487998 0.045944002
0.00027499429 0.065112002 0.050165001
0.00043099382 0.070499003 0.05133
0.0010979933 0.076453999 0.050044
-2.2007158e-05 0.081877999 0.047394
0.0072670085 -0.097561002 -0.012562
0.0063620079 -0.090273 0.0012450001
0.0074230074 -0.083076 0.0094210003
0.0068250066 -0.076885 0.01137
0.0063110059 -0.070720002 0.011342
0.0054370058 -0.064608999 0.0096039996
0.0059810053 -0.058435 0.0090500005
0.0066260048 -0.052328002 0.0095170001
0.0076000043 -0.046192002 0.010687
0.0064310036 -0.040178999 0.0096899997
0.0056120027 -0.034232002 0.0097589996
0.0065120026 -0.027957 0.011181
0.006434002 -0.021914 0.011807
0.0064800014 -0.015927 0.012346
0.0069100009 -0.0098749995 0.013102
0.0069870003 -0.0038049994 0.013857
0.0074300002 0.0024000008 0.014912
0.0071569993 0.0072340006 0.016842
0.0072319987 0.014616 0.020417999
0.0071699983 0.019935001 0.023972001
0.0070139975 0.025931001 0.026929
0.007220997 0.031189 0.029030999
0.0066699968 0.037687998 0.031491
0.0060069961 0.043763999 0.034063999
0.006567996 0.048893001 0.036371998
0.0058269952 0.054798 0.039312001
0.0052149948 0.060389001 0.042645998
0.0057929945 0.065714002 0.044291001
0.0040569939 0.071174003 0.046753
0.0047949934 0.077170998 0.044487
0.01166401 -0.110078 -0.0072289999
0.011015009 -0.102745 0.003517
0.011969008 -0.095288999 0.010321
0.010679008 -0.089551002 0.01182
0.011018007 -0.082938001 0.015106
0.011094007 -0.076603003 0.016646
0.011112006 -0.070378996 0.017293001
0.010655005 -0.064268999 0.016432
0.010444005 -0.058145002 0.015414
0.010758005 -0.052102 0.014991
0.010546003 -0.046032999 0.014239
0.010758004 -0.040036 0.014072
0.010502003 -0.033936001 0.013853
0.010376003 -0.027868001 0.013714
0.011480002 -0.021767998 0.013961
0.011091001 -0.015738998 0.013868
0.011924001 -0.009651999 0.014063
0.01179 -0.0036809992 0.014529
0.011912 0.002365001 0.015184
0.011935999 0.0082820011 0.016617
0.012334999 0.013558001 0.018879
0.012063998 0.019600002 0.022314001
0.011932998 0.025504002 0.025474999
0.011285997 0.031837001 0.028324001
0.011728996 0.037338998 0.03009
0.012047996 0.043184001 0.031181
0.010975995 0.049263999 0.033264998
0.010304995 0.055126999 0.035394002
0.010229995 0.060835999 0.037349001
0.0089149941 0.066405997 0.040139999
0.0084059937 0.072035998 0.040778
0.01609901 -0.117172 -0.010488
0.015430009 -0.109401 0.004493
0.015356009 -0.102331 0.0099600004
0.016025007 -0.095086001 0.014634
0.015801007 -0.088797003 0.017348999
0.014654008 -0.083103999 0.018348999
0.014418007 -0.076826997 0.019285001
0.013814007 -0.070496999 0.019588999
0.014904005 -0.064072996 0.020055
0.014723005 -0.057957999 0.019059001
0.015623005 -0.051989999 0.018793
0.015456004 -0.045908999 0.018064
0.015325003 -0.039820999 0.017431
0.014786003 -0.033581998 0.016386
0.015096003 -0.027454998 0.01562
0.016036002 -0.021666998 0.015303
0.016134001 -0.015607998 0.014877
0.016363 -0.0096869981 0.014479
0.016367 -0.0035949985 0.014573
0.016138 0.0026400015 0.014996
0.016767001 0.0082450015 0.015776001
0.016370999 0.014384001 0.017626001
0.016024997 0.020434001 0.020416001
0.016113998 0.026114002 0.023312001
0.015204997 0.032274 0.026389999
0.015048997 0.038015999 0.028011
0.015707996 0.043729 0.02877
0.014751995 0.049642999 0.030396
0.013594995 0.055601001 0.032232001
0.013017994 0.061420999 0.033899002
0.013217994 0.067033999 0.033280998
0.014425994 0.073775999 0.017759001
0.02058401 -0.115367 0.003734
0.020326009 -0.108354 0.010268
0.020016009 -0.101854 0.01396
0.019704007 -0.095545001 0.016930001
0.019257007 -0.089388996 0.019257
0.020113008 -0.082457997 0.021198999
0.020125007 -0.076227002 0.022659
0.018945005 -0.070359997 0.022688
0.019627005 -0.063951001 0.023042999
0.020233005 -0.057937998 0.022601999
0.020232003 -0.051899001 0.021594999
0.020644004 -0.046045002 0.020504
0.019589003 -0.039427999 0.019073
0.020508004 -0.033852 0.018273
0.020651001 -0.027835999 0.017101999
0.020717002 -0.021795997 0.016043
0.020827001 -0.015474998 0.014884
0.02076 -0.0097219981 0.014371
0.020677 -0.0036209982 0.014321
0.020989999 0.0024880019 0.014366
0.021335 0.0085310023 0.014387
0.020156998 0.014825002 0.015912
0.020205999 0.020737002 0.017885
0.020452999 0.026501002 0.019982001
0.019369997 0.032490999 0.023226
0.019610995 0.038279001 0.024316
0.019591996 0.044124998 0.025088999
0.017598996 0.049892001 0.027019
0.018516995 0.056038 0.025916999
0.018415995 0.062011998 0.024939001
0.025819011 -0.1222 -0.0059409998
0.02466801 -0.115818 0.006327
0.024603009 -0.108436 0.012774
0.024377009 -0.101898 0.016497999
0.023913007 -0.095775001 0.018894
0.024674008 -0.088518001 0.021547001
0.023648007 -0.083160996 0.022657
0.024418008 -0.076251 0.024312999
0.024601005 -0.069977 0.025332
0.024213005 -0.063871004 0.025242001
0.023585005 -0.057378996 0.024315
0.024398005 -0.051583998 0.023032
0.024352003 -0.045469996 0.021497
0.024821004 -0.039647996 0.020230999
0.025050003 -0.033881996 0.018994
0.025142001 -0.028185999 0.017498
0.025201002 -0.021770999 0.016054001
0.025353001 -0.015585998 0.014721
0.025225 -0.009670998 0.013798
0.025560999 -0.0034319977 0.013292
0.026132001 0.0027310024 0.01288
0.025714001 0.0087070018 0.012856
0.025268998 0.014788002 0.013248
0.025206998 0.020797001 0.014685
0.024474999 0.026889002 0.016336
0.024522996 0.032757003 0.018131999
0.023790997 0.038620003 0.020186
0.022915997 0.044473004 0.021120001
0.024173995 0.050806005 0.01902
0.021680994 0.056244005 0.020873001
0.021739995 0.062121004 0.018223001
0.030204011 -0.121843 -0.00079600001
0.029979009 -0.113982 0.010314
0.029212009 -0.108721 0.014412
0.02878901 -0.102575 0.01794
0.029646007 -0.094334997 0.021330001
0.029265007 -0.088547997 0.023022
0.029242007 -0.082331002 0.024619
0.028565008 -0.076603003 0.025873
0.029034005 -0.069985002 0.026843
0.029391006 -0.063786 0.026900001
0.029434005 -0.057755996 0.025795
0.029570004 -0.051909998 0.023987001
0.029652003 -0.045918997 0.021968
0.029778004 -0.039568998 0.020326
0.029947003 -0.033449996 0.018614
0.029766003 -0.028053999 0.017069001
0.029788002 -0.021964999 0.015158
0.030150002 -0.015577997 0.013524
0.030464999 -0.0093439976 0.012519
0.029251 -0.0037889974 0.012118
0.029526001 0.0025320025 0.011344
0.028718 0.0087130032 0.011202
0.029412998 0.014934002 0.011306
0.028967999 0.021061001 0.012266
0.029482998 0.027103001 0.01266
0.028002996 0.033021003 0.014872
0.027773997 0.038984004 0.015542
0.027262997 0.044849005 0.015797
0.028343996 0.051213004 0.013643
0.027426995 0.056998003 0.012831
0.027788995 0.062829003 0.0056480002
0.034645993 0.087272003 -0.102285
0.034187011 -0.123104 4.4e-05
0.03398801 -0.115355 0.010691
0.03389401 -0.108198 0.016169
0.033760007 -0.10159 0.01977
0.033895008 -0.094701 0.022412
0.033718009 -0.088818997 0.024064999
0.033797007 -0.082252003 0.02575
0.033753008 -0.076131001 0.026993001
0.033884007 -0.069779001 0.027772
0.033871002 -0.063633002 0.027375
0.033961006 -0.057697996 0.026033999
0.034039002 -0.051900998 0.023996999
0.034024004 -0.046217997 0.021942999
0.034335002 -0.039672997 0.019723
0.033727005 -0.034773998 0.017883001
0.033719003 -0.028650995 0.016321
0.034451004 -0.021741996 0.013933
0.034233 -0.015832996 0.012234
0.033386 -0.010100997 0.011443
0.033936001 -0.003612997 0.010106
0.033420999 0.0024610031 0.0095250001
0.034247998 0.0089180032 0.0084020002
0.033867002 0.015075003 0.0083320001
0.034260001 0.021262003 0.0084009999
0.033717997 0.027330004 0.0094609996
0.033267997 0.033384003 0.0097620003
0.034373995 0.039910004 0.0072670002
0.030544996 0.045090005 0.01196
0.032400995 0.051737003 0.0075059999
0.031576995 0.057633005 0.0059059998
0.039121993 0.089116998 -0.114165
0.03796801 -0.125984 -0.000528
0.038444012 -0.116089 0.011717
0.038545012 -0.108061 0.017198
0.038592007 -0.100129 0.021358
0.038316008 -0.095298998 0.02314
0.038390007 -0.088347003 0.025023
0.038416006 -0.082052998 0.026249999
0.038373008 -0.075823002 0.027202999
0.038347006 -0.069771998 0.027589001
0.038449004 -0.063743003 0.027005
0.038489003 -0.057754997 0.025627
0.038287003 -0.052291997 0.023658
0.038457002 -0.046176996 0.021162
0.038439002 -0.040261995 0.018831
0.038171005 -0.034526996 0.016969999
0.038409002 -0.028210996 0.014651
0.038022004 -0.022443997 0.012675
0.039083 -0.015568996 0.010034
0.038006 -0.0099889962 0.0091749998
0.039005999 -0.0032829966 0.0071700001
0.037055001 0.0022680033 0.0074149999
0.037857998 0.0088260034 0.0053309998
0.037395 0.015111004 0.0054489998
0.036534999 0.021130003 0.0062850001
0.037568998 0.027550004 0.0050240001
0.036750995 0.033631004 0.0051369998
0.035975996 0.039685003 0.0044160001
0.035965998 0.046116002 0.0031049999
0.043156993 0.090883009 -0.120997
0.043593012 -0.12790599 0.0010470001
0.043455012 -0.121549 0.0081679998
0.043223012 -0.11290399 0.014626
0.043189012 -0.10779599 0.017945999
0.043039009 -0.10070899 0.021508999
0.042937007 -0.094189994 0.023453999
0.042819008 -0.087760992 0.025062
0.042930007 -0.082028992 0.026154
0.042786006 -0.075784996 0.026683999
0.043234009 -0.069815993 0.026605001
0.043032005 -0.063761994 0.026038
0.043001004 -0.057842996 0.024391999
0.043663003 -0.051239997 0.021973999
0.042497005 -0.046637997 0.020095
0.042991005 -0.040168997 0.017245
0.042121004 -0.034907997 0.01537
0.043005005 -0.028060997 0.012104
0.043329004 -0.021779995 0.009567
0.042768002 -0.015913997 0.0078110001
0.041521002 -0.010301996 0.0071330001
0.042479999 -0.0035759963 0.0047929999
0.042651001 0.0027850037 0.0024910001
0.042362001 0.0091100037 0.00078599999
0.043985002 0.015981004 -0.0035929999
0.042165995 0.021792004 -0.001319
0.042431995 0.028227003 -0.0035629999
0.040606998 0.033871002 -0.0020709999
0.047103994 0.092821009 -0.125599
0.048558012 -0.134001 -0.0035929999
0.048275013 -0.126532 0.0043080002
0.04796901 -0.11925799 0.010058
0.047918011 -0.11326199 0.013971
0.047770012 -0.10667999 0.018288
0.047917008 -0.10098499 0.021008
0.048009008 -0.09484899 0.023073999
0.047733009 -0.088173993 0.024552001
0.047804009 -0.082106993 0.025403
0.047747009 -0.075937994 0.025731999
0.047533009 -0.06987799 0.025503
0.047681004 -0.063876994 0.024558
0.047604002 -0.057999995 0.022933999
0.047664005 -0.052069996 0.020722
0.047382005 -0.046419997 0.017797001
0.047365002 -0.040482998 0.014744
0.046571005 -0.034889996 0.012558
0.046135005 -0.028937995 0.010015
0.047147002 -0.022164997 0.0064739999
0.047015999 -0.015963996 0.0045079999
0.047626 -0.0094199963 0.0013680001
0.04679 -0.0034509958 -4.9999999e-05
0.04665 0.0028210043 -0.002781
0.044693999 0.0086170034 -0.0026769999
0.044774 0.015310003 -0.0059750001
0.044352997 0.021735003 -0.0071470002
0.047382995 0.028948003 -0.011306
0.054051012 -0.141243 -0.017907999
0.053017013 -0.134095 -0.0046359999
0.052614011 -0.126569 0.003208
0.052595012 -0.12027799 0.0078750001
0.052340012 -0.11328999 0.012855
0.05221701 -0.10675099 0.017231001
0.052274007 -0.100647 0.020147
0.052161008 -0.094272994 0.022451
0.052273009 -0.088215992 0.023359001
0.051991008 -0.081958994 0.024153
0.053284008 -0.076147996 0.023689
0.052537009 -0.069913991 0.02358
0.051902007 -0.064066991 0.022861
0.051830005 -0.058206998 0.021408999
0.050584003 -0.053262997 0.019963
0.050874002 -0.047203995 0.016392
0.051952004 -0.040423997 0.011002
0.051712003 -0.034458995 0.0067019998
0.050792005 -0.028545996 0.0048850002
0.051455002 -0.022011997 0.000588
0.049828999 -0.016415996 0.00057199999
0.049532 -0.010141996 -0.001401
0.048489001 -0.0040459959 -0.0027340001
0.049678002 0.0027950045 -0.010032
0.059001014 -0.152162 -0.039310001
0.058318011 -0.142506 -0.021606
0.057053011 -0.133526 -0.0061690002
0.055137012 -0.12407199 0.0026140001
0.056193013 -0.11921399 0.005448
0.056768011 -0.11353 0.0097679999
0.05818101 -0.10912299 0.012824
0.056292009 -0.10016799 0.018981
0.056099009 -0.093894996 0.021025
0.056173008 -0.088001989 0.021844
0.055678006 -0.081872992 0.022491001
0.056627009 -0.076093994 0.022019001
0.055675007 -0.070217989 0.021996001
0.056786008 -0.064036995 0.020529
0.056134004 -0.058343995 0.019285001
0.055711005 -0.052795995 0.016546
0.055517003 -0.047126997 0.012309
0.055103004 -0.041236997 0.0070549999
0.054206003 -0.035297997 0.0032820001
0.053572003 -0.029141994 4.5000001e-05
0.054394003 -0.022405995 -0.0051589999
0.055845 -0.015530995 -0.011027
0.056377999 -0.0090089953 -0.014475
0.064045012 -0.162067 -0.057831999
0.063736014 -0.14902601 -0.034734
0.06230101 -0.140358 -0.023015
0.061663013 -0.13997599 -0.021535
0.060965013 -0.127684 -0.010175
0.062964007 -0.12317299 -0.011524
0.061425012 -0.11428499 0.0039630001
0.061595012 -0.10768699 0.011765
0.061372008 -0.101 0.016073
0.060319006 -0.094052993 0.018939
0.059986006 -0.087919995 0.019843001
0.060662009 -0.082222991 0.019679001
0.059763007 -0.076190993 0.020014999
0.059278008 -0.070463993 0.019853
0.059944008 -0.064533994 0.018718001
0.060319003 -0.058634996 0.016021
0.060197003 -0.053006995 0.011711
0.059443004 -0.047457997 0.00624
0.060184002 -0.041064996 -0.003488
0.068326011 -0.15978999 -0.049361002
0.067592017 -0.149901 -0.038782001
0.067192018 -0.143728 -0.032942001
0.066951014 -0.137143 -0.029618001
0.065181009 -0.10712299 0.0087390002
0.065655008 -0.10111599 0.012701
0.064171009 -0.094043992 0.01629
0.066254005 -0.088817991 0.015398
0.065059006 -0.082456991 0.016613999
0.065334007 -0.076490991 0.015533
0.063266009 -0.070554994 0.016760999
0.064172007 -0.064796992 0.013829
0.062950008 -0.059570998 0.01254
0.064661011 -0.053361993 0.001113
0.072683014 -0.159564 -0.051621001
0.071776018 -0.15184399 -0.044041
0.072195016 -0.147927 -0.042025
0.069392011 -0.10739699 0.003674
0.06752301 -0.099878989 0.011284
0.069054008 -0.094834991 0.011298
0.068617009 -0.088730991 0.01248
0.069122009 -0.08283399 0.011495
0.068135008 -0.076740995 0.012159
0.068381004 -0.071070991 0.0093569998
0.067187004 -0.065606989 0.0083299996
0.075672016 -0.16073801 -0.055814002
0.076831013 -0.158951 -0.056795001
0.073920004 -0.108372 -0.0049749999
0.07230401 -0.10091799 0.0051890002
0.074562006 -0.095817991 0.0031119999
0.070507005 -0.088757992 0.0097009996
0.07252001 -0.083379991 0.004985
0.070740007 -0.077212989 0.0075929998
0.075001009 -0.065294996 -0.0057899999
0.07708101 -0.10214899 -0.0033189999
0.075961009 -0.095578991 -0.00034900001
0.078074008 -0.090400994 -0.0058240001
0.078846008 -0.08441399 -0.0091739995
0.086525008 -0.10291499 -0.077365004
0.088241011 -0.077765994 -0.119248
0.089294009 -0.07419499 -0.13700899
0.09102001 -0.096114993 -0.078932002
0.091143005 -0.089431994 -0.082434997
0.092857011 -0.078532994 -0.118483
0.092884004 -0.074475996 -0.134809
0.095563009 -0.076242991 -0.124118
0.089566007 -0.074641995 -0.127628
0.085443005 -0.080924995 -0.106731
0.087045006 -0.077968992 -0.119952
0.087293006 -0.074023992 -0.134645
0.086516008 -0.08984299 -0.076972999
0.083832011 -0.079603992 -0.115175
0.082481004 -0.097291991 -0.073664002
0.081942007 -0.092155993 -0.076536
0.080286011 -0.083019994 -0.133406
0.074411012 -0.164436 -0.063437
0.070923015 -0.16440099 -0.059152
0.07084401 -0.082448989 -0.080816001
0.070777014 -0.16338401 -0.055629998
0.070788018 -0.158345 -0.048758
0.079094008 -0.092372991 -0.0070409998
0.07562501 -0.085605994 -0.00373
0.067245014 -0.161806 -0.052641999
0.066400014 -0.15803599 -0.046596002
0.067708015 -0.14928301 -0.038082
0.074388005 -0.10584799 -0.001524
0.074382007 -0.098368995 0.002686
0.075195007 -0.092048995 0.00069800002
0.074537009 -0.085343994 0.00081200001
0.074598007 -0.078788996 -0.0025210001
0.063518018 -0.154788 -0.042637002
0.063181013 -0.149698 -0.035519999
0.059462011 -0.14781301 -0.032179002
0.068472005 -0.11202599 -0.0021899999
0.070269011 -0.10496499 0.0056810002
0.07096301 -0.098235995 0.0082639996
0.071933009 -0.091756992 0.0074749999
0.071255006 -0.084936991 0.0082970001
0.071651004 -0.07836999 0.0061980002
0.069767006 -0.07211899 0.007493
0.059945013 -0.153368 -0.040770002
0.060011011 -0.146863 -0.030223001
0.060824011 -0.139856 -0.019966999
0.06395001 -0.10986399 0.0067059998
0.065402009 -0.10395699 0.010993
0.066236004 -0.09754099 0.013946
0.066642009 -0.091089994 0.014783
0.067116007 -0.084672995 0.014789
0.06706401 -0.078161992 0.014347
0.067490004 -0.07165999 0.011459
0.067318007 -0.065120995 0.0080199996
0.066530004 -0.058762994 0.003483
0.035546992 0.088838004 -0.13028701
0.038906991 0.093583003 -0.130987
0.057216011 -0.144849 -0.027577
0.056464013 -0.140962 -0.016989
0.059305012 -0.127753 -0.0055160001
0.060781009 -0.12143199 -0.002355
0.06099401 -0.11158499 0.0078079998
0.061586007 -0.10383699 0.014375
0.062424008 -0.097634993 0.016739
0.06294401 -0.091144994 0.017808
0.061864007 -0.08424399 0.018891999
0.063026011 -0.078097992 0.017844999
0.062911004 -0.071652994 0.017270001
0.062841006 -0.065171994 0.015986999
0.063157007 -0.058366995 0.011646
0.061933003 -0.052039996 0.0065649999
0.060063004 -0.039636996 -0.0037509999
0.039129991 0.088776 -0.115908
0.040453993 0.094011001 -0.137125
0.053031012 -0.1453 -0.032958001
0.053050011 -0.13889199 -0.011467
0.054390009 -0.130557 -0.0020399999
0.055259012 -0.125496 0.001656
0.056579012 -0.12201599 0.003089
0.05695001 -0.11108999 0.011933
0.057366006 -0.10330399 0.016937001
0.058032006 -0.097224995 0.019300001
0.058240008 -0.090682991 0.020675
0.057979006 -0.084139995 0.021186
0.057854008 -0.07788299 0.021395
0.058756009 -0.071612991 0.020505
0.058500007 -0.065194994 0.019827001
0.058744002 -0.058559995 0.017410001
0.057814002 -0.052411996 0.014425
0.057489004 -0.045713995 0.0078830002
0.056777004 -0.039371997 0.001956
0.054999005 -0.033899996 0.00048399999
0.054567005 -0.027361995 -0.003329
0.054807998 -0.020563994 -0.0066570002
0.054469999 -0.013929996 -0.010515
0.054724999 -0.0069689956 -0.013951
0.039456997 0.059892002 -0.087459996
0.035545994 0.086760998 -0.115724
0.049775012 -0.136381 -0.0081749996
0.050707012 -0.130016 0.001083
0.051160011 -0.12446399 0.0052459999
0.051945012 -0.118499 0.0095239999
0.05280301 -0.11140999 0.013858
0.053076006 -0.102144 0.019148
0.053807009 -0.096956991 0.021075999
0.054170009 -0.090738989 0.022372
0.054308008 -0.084355995 0.022938
0.054257009 -0.077939995 0.023088999
0.054580007 -0.071573995 0.022822
0.053741008 -0.06549599 0.02228
0.054027002 -0.058926996 0.020625001
0.053274002 -0.053022996 0.018438
0.053005002 -0.046324994 0.014208
0.053133003 -0.039280996 0.008475
0.052997004 -0.032809995 0.0038610001
0.052725002 -0.026447996 0.00093799998
0.052388001 -0.020052996 -0.002078
0.051840998 -0.013690995 -0.0040970002
0.050574999 -0.0076359957 -0.0039260001
0.050206002 -0.00091799564 -0.00673
0.049058001 0.0056840042 -0.010726
0.047910001 0.012487004 -0.016441001
0.028436994 0.074129 -0.082234003
0.033817992 0.088049002 -0.134726
0.04750701 -0.127794 0.0034390001
0.047676012 -0.12158499 0.008657
0.047887012 -0.116492 0.011737
0.048542012 -0.11040799 0.015905
0.049140006 -0.10433599 0.019345
0.049650006 -0.09805999 0.021904999
0.049978007 -0.09101899 0.023533
0.049967006 -0.084017992 0.024573
0.050473008 -0.078204989 0.024933999
0.050193008 -0.071596995 0.024628
0.049887009 -0.06540399 0.024047
0.049530003 -0.059286997 0.022500001
0.049552005 -0.052540995 0.020044999
0.048874002 -0.046513997 0.017236
0.049119003 -0.039273996 0.012971
0.047222003 -0.034497995 0.011778
0.048823003 -0.026509997 0.0067079999
0.047215998 -0.020873995 0.0057609999
0.047373999 -0.014143996 0.003602
0.048030999 -0.0071889958 -0.000117
0.047541 -0.00056799588 -0.0022229999
0.046774 0.0058200043 -0.004284
0.047054999 0.012720004 -0.0092639998
0.045281 0.018781004 -0.0083210003
0.045414995 0.025415003 -0.0088419998
0.032300994 0.073839001 -0.069073997
0.04294201 -0.128416 0.00032799999
0.043515012 -0.12203199 0.0075759999
0.044240013 -0.11480899 0.013034
0.044296011 -0.110503 0.016249999
0.045136008 -0.10298 0.020269001
0.045465007 -0.096985996 0.022605
0.045733009 -0.090585992 0.024153
0.045978006 -0.084152989 0.025505999
0.045994006 -0.07764899 0.025957
0.046042006 -0.07160899 0.025954001
0.045897007 -0.065389991 0.025325
0.045970004 -0.058646996 0.023778999
0.045376003 -0.052738998 0.021824
0.044665005 -0.046998996 0.019323001
0.044784002 -0.039565995 0.015942
0.044322003 -0.033442996 0.013573
0.043267004 -0.027770996 0.011778
0.043393999 -0.020891996 0.0091589997
0.042966001 -0.014500996 0.0071970001
0.042897001 -0.0079449965 0.0057839998
0.043017 -0.0011429962 0.003663
0.042552002 0.0053230035 0.0015829999
0.043072 0.012161003 -0.0012769999
0.042745002 0.018473003 -0.00211
0.043112997 0.025224004 -0.0033859999
0.042027995 0.031928003 -0.0045960001
0.041248996 0.038633004 -0.0062739998
0.029486995 0.073455997 -0.074124001
0.038704012 -0.122611 0.0044280002
0.039097011 -0.117083 0.010845
0.040231012 -0.109737 0.016381999
0.041035008 -0.102938 0.020331001
0.041620009 -0.096198 0.022849999
0.041259006 -0.090951003 0.024457
0.041558009 -0.084434003 0.02579
0.041932009 -0.077767 0.026705001
0.041930009 -0.071572997 0.026900999
0.041757006 -0.065490998 0.026418
0.041519005 -0.059282996 0.025157001
0.041163005 -0.053045996 0.023264
0.040697005 -0.046900995 0.020903001
0.040297005 -0.040102996 0.018257
0.040033005 -0.033552997 0.015889
0.039849002 -0.027052997 0.013562
0.039271001 -0.020892996 0.011689
0.038920999 -0.014495996 0.0097559998
0.03782 -0.0087589966 0.0090619996
0.038516 -0.0015719966 0.0072610001
0.038113002 0.0048390031 0.006085
0.039124999 0.011704003 0.0042170002
0.039179999 0.018220004 0.003612
0.039737996 0.024913004 0.002535
0.038240995 0.031092003 0.0034020001
0.038508996 0.038066003 0.00057500001
0.037668996 0.044589005 -0.00025700001
0.028832011 -0.127877 -0.018552
0.034587011 -0.117007 0.0089490004
0.036546011 -0.108755 0.01613
0.036710009 -0.103047 0.019663
0.036446009 -0.097497001 0.021965999
0.037223008 -0.090547003 0.024377
0.036984008 -0.084670998 0.025634
0.037537009 -0.077935003 0.026843
0.037959006 -0.071422003 0.027353
0.037720006 -0.065452002 0.027345
0.037606005 -0.059498996 0.026209
0.036847003 -0.052650996 0.024155
0.036428005 -0.046445996 0.021709001
0.036086004 -0.040463995 0.019579001
0.035692003 -0.033568997 0.017472001
0.035416003 -0.026647996 0.015366
0.034922998 -0.021087997 0.013557
0.034768999 -0.014404997 0.011777
0.035264 -0.0074719968 0.010377
0.034437001 -0.0016319969 0.0097289998
0.034883 0.0050970032 0.0085070003
0.034577999 0.011351002 0.0081320005
0.034095999 0.017705003 0.0083649997
0.034262996 0.024145003 0.0088790003
0.034575995 0.030668003 0.0087209996
0.035647996 0.037850004 0.0058229999
0.035176996 0.044399004 0.005039
0.033963997 0.050757002 0.0055709998
0.029356994 0.065885 -0.013913
0.025403012 -0.12569501 -0.020282
0.029794011 -0.11725 0.0064909998
0.03207301 -0.109142 0.014918
0.033109009 -0.102181 0.019159
0.032385007 -0.097097002 0.021136999
0.033857007 -0.089570001 0.023721
0.032743007 -0.084517002 0.02503
0.032360006 -0.078463003 0.026327001
0.033141006 -0.071765997 0.027442999
0.033329006 -0.065468997 0.027526001
0.033275004 -0.059390996 0.026408
0.032996003 -0.053423997 0.024476999
0.032019004 -0.046457995 0.022213001
0.031632002 -0.040176995 0.020109
0.031381004 -0.034026995 0.018346
0.031020002 -0.027579999 0.016631
0.030639002 -0.021168998 0.014704
0.030410001 -0.014482997 0.013273
0.030301999 -0.0080889976 0.012456
0.030339001 -0.0015169973 0.011557
0.030168001 0.0048160027 0.010944
0.030426998 0.011227002 0.010684
0.031003999 0.017543001 0.010827
0.031034999 0.024007002 0.011533
0.031627998 0.030556003 0.011506
0.030951995 0.037018005 0.012067
0.032133996 0.044107005 0.010205
0.031417996 0.050689004 0.010045
0.025858995 0.065876998 -0.0093750004
0.02709201 -0.11502 0.0078990003
0.026916008 -0.109975 0.012302
0.027963009 -0.103173 0.017174
0.028668009 -0.096502997 0.019998999
0.029130008 -0.090145998 0.022244999
0.029688008 -0.083668999 0.024258001
0.029160008 -0.077900998 0.025444999
0.029148005 -0.071704999 0.026461
0.029297005 -0.065558001 0.026729001
0.028573006 -0.059275996 0.026102999
0.028740006 -0.053382996 0.024404
0.027979003 -0.046861995 0.022297001
0.027476003 -0.040469997 0.020528
0.026819004 -0.033779997 0.018911
0.026649002 -0.027549999 0.017221
0.026294002 -0.021065999 0.015686
0.026016003 -0.014550998 0.014417
0.025900001 -0.0081539983 0.013599
0.025743 -0.0019249978 0.013099
0.025859 0.0046860022 0.012833
0.025586998 0.011160002 0.012753
0.026336998 0.017433003 0.013288
0.026564999 0.023826001 0.014353
0.025899999 0.030326001 0.016034
0.027554996 0.036765005 0.015876001
0.027346997 0.043256003 0.016096
0.027514996 0.050105006 0.015078
0.027333995 0.057114005 0.013035
0.025355995 0.065498002 0.0042480002
0.016835993 0.079496004 -0.032047
0.021579009 -0.116315 0.002877
0.022175008 -0.110369 0.010089
0.022861009 -0.103859 0.01444
0.02337401 -0.097383 0.017855
0.024251007 -0.090591997 0.020608
0.025296008 -0.083811998 0.022746
0.024686007 -0.078005001 0.023846
0.024623005 -0.071856998 0.025002001
0.025261005 -0.065637998 0.025574001
0.025350006 -0.059597995 0.02502
0.023257004 -0.053004995 0.023011001
0.024513004 -0.047356997 0.021655999
0.023444004 -0.040649995 0.020122999
0.022810005 -0.034115996 0.018871
0.022005001 -0.027466998 0.017215
0.021874001 -0.021115998 0.015848
0.021696001 -0.014705998 0.014696
0.021548999 -0.0082129985 0.014343
0.021331999 -0.0017569981 0.014373
0.021559 0.0046630017 0.01415
0.021570997 0.011141002 0.014599
0.021930998 0.017449003 0.015687
0.022670997 0.023582002 0.017134
0.023243997 0.029929003 0.01864
0.024129996 0.036364004 0.019823
0.024221996 0.042995002 0.020151
0.023576995 0.049462005 0.020106001
0.024134994 0.056649003 0.017762
0.022410994 0.063142002 0.016284
0.017721009 -0.110188 0.006544
0.01892601 -0.103354 0.012106
0.01915201 -0.097168997 0.015696
0.019798007 -0.090636998 0.018663
0.019380007 -0.084615998 0.020212
0.020177007 -0.078077003 0.022127001
0.019110005 -0.072175004 0.022421001
0.020435005 -0.065785997 0.023265
0.020521006 -0.059719998 0.022632999
0.019222006 -0.053325001 0.021118
0.019441003 -0.047056999 0.020132
0.019125003 -0.040755 0.018993
0.017862003 -0.034061 0.017638
0.018091002 -0.027793998 0.016580001
0.017042002 -0.021094998 0.01542
0.016843002 -0.014619998 0.014747
0.017117999 -0.0082349982 0.014494
0.01736 -0.0015959985 0.014434
0.016881 0.0044860016 0.015214
0.017266998 0.010996002 0.016309001
0.017756999 0.017236002 0.017871
0.018633999 0.023233002 0.020128001
0.019232998 0.029559001 0.022508999
0.019402996 0.03607 0.02431
0.020057997 0.042544 0.024603
0.019791996 0.049038 0.024691001
0.020459995 0.055819001 0.023271
0.019550994 0.062359001 0.023077
0.014321993 0.071878999 0.0020089999
0.014121009 -0.10399 0.0073310002
0.014962008 -0.097305 0.012239
0.015240008 -0.090875 0.015689
0.014953007 -0.084802002 0.017689001
0.016267007 -0.078042001 0.019902
0.014590006 -0.072350003 0.0196
0.015553006 -0.065980002 0.020351
0.015837006 -0.059827998 0.019679001
0.016518006 -0.053668998 0.019309999
0.014386004 -0.046987999 0.017283
0.015014004 -0.040702 0.017131001
0.014086002 -0.034164999 0.015846999
0.014164003 -0.027738998 0.015191
0.013678002 -0.021188999 0.014396
0.012701001 -0.014586999 0.014121
0.012305001 -0.0081059989 0.014223
0.012802 -0.0014169988 0.014544
0.012766 0.0050160009 0.015644001
0.012940999 0.011108001 0.01733
0.013480999 0.018090002 0.020339999
0.014159998 0.023833001 0.023257
0.014757997 0.029918002 0.025928
0.015075997 0.036111001 0.027539
0.015841996 0.042238001 0.028471
0.015970996 0.048661999 0.028966
0.017105995 0.055192001 0.028199
0.017283995 0.061893001 0.027722999
0.0082590086 -0.098925002 -0.001117
0.009984008 -0.091562003 0.0090570003
0.012150007 -0.084314004 0.015633
0.010758007 -0.078663997 0.01565
0.011352006 -0.072407 0.016993999
0.011102006 -0.066248 0.016801
0.010180006 -0.059951 0.015158
0.010068005 -0.053568002 0.01393
0.0089420034 -0.04699 0.012378
0.0095060039 -0.040433999 0.012672
0.009843003 -0.033921 0.013078
0.0090170028 -0.02744 0.012632
0.0087450016 -0.020973001 0.012651
0.0080290008 -0.014426999 0.012721
0.0078110006 -0.0079469988 0.013396
0.0083990004 -0.0012389993 0.014178
0.0085209999 0.0053080008 0.015887
0.0085549988 0.011013001 0.018321
0.0095519982 0.017825 0.021984
0.010214998 0.023708999 0.02516
0.010719997 0.030185001 0.027716
0.011199997 0.036139 0.029882999
0.011624997 0.042199999 0.031195
0.011747995 0.048528999 0.032464001
0.012544995 0.054641999 0.033233002
0.013005994 0.060915999 0.034122001
0.013514995 0.067915998 0.032588001
0.0075689931 0.081207 0.0057819998
0.0070870072 -0.078702003 0.010386
0.0064390064 -0.072733 0.011061
0.0072690058 -0.066399999 0.012119
0.0056320052 -0.060313001 0.0078929998
0.0038770046 -0.053684 0.003606
0.0058610043 -0.046875998 0.0080620004
0.0050060037 -0.040158998 0.0081120003
0.0054910029 -0.033477999 0.0093029998
0.0046870024 -0.02712 0.0097859995
0.0046230019 -0.02062 0.010602
0.0034620012 -0.014176 0.011115
0.0031100006 -0.0077609997 0.011905
0.0036810001 -0.0011609996 0.013611
0.0037309995 0.0051670005 0.015505
0.004765999 0.011851 0.018942
0.0049119988 0.017294999 0.022217
0.0066419975 0.024985 0.026517
0.006794997 0.030477 0.028712001
0.0071399966 0.036353 0.031029999
0.0076409965 0.041908 0.032731999
0.0080559952 0.048367001 0.035211001
0.008821995 0.054365002 0.036697999
0.009638994 0.060426999 0.037969001
0.0099519948 0.066909 0.038759001
0.0011270029 -0.032775 0.004092
-9.1997688e-05 -0.026505999 0.0055240002
-0.00071399828 -0.020175001 0.0069289999
-0.00059699878 -0.013657 0.0089079998
-0.0019799992 -0.0074999998 0.0096349996
-0.0010629998 -0.00080600014 0.012128
-0.0018310004 0.0050269999 0.014235
0.0012409989 0.013208 0.019091999
0.0017269984 0.019184001 0.022909001
0.002362998 0.025294 0.026159
0.0020239975 0.030448001 0.028263999
0.0029079968 0.037386999 0.031861998
0.0031159963 0.041629001 0.034049999
0.0038849958 0.048255999 0.037152998
0.0049439953 0.053941999 0.039733
0.0063459948 0.059718002 0.04174
0.0068079946 0.066281997 0.043120999
0.0065599936 0.073086001 0.043489002
-0.0049090073 0.084647 0.0021929999
-0.0059749978 -0.025262 -0.006232
-0.0047729979 -0.019447001 0.002595
-0.0053029992 -0.013111 0.004768
-0.0052319993 -0.0066660005 0.0077360002
-0.005138 -0.00020100045 0.010171
-0.0032550008 0.0069749993 0.014426
-0.0033090012 0.013128 0.017504999
-0.0028850017 0.019055 0.021621
-0.003474002 0.024404 0.024009001
-0.0023370029 0.03091 0.027577
-0.0016710033 0.036908001 0.031456001
-0.00095300371 0.042591002 0.035535
-8.8004126e-05 0.047187999 0.038708001
0.0010029953 0.053847 0.042879
0.0023409948 0.059521001 0.045671001
0.0021699942 0.066133998 0.048560999
0.0028819938 0.072457999 0.048517998
0.002560993 0.080410004 0.043832
-0.0099049993 -0.012171001 -0.002604
-0.010274999 -0.0061030011 0.002234
-0.010633 9.8999066e-05 0.005686
-0.0084280008 0.006961999 0.011495
-0.0099380007 0.012421999 0.013873
-0.0083960015 0.018967001 0.018507
-0.0064190025 0.025869001 0.023367001
-0.0078150025 0.030695001 0.025665
-0.0064080032 0.036961 0.030663
-0.0051440038 0.042796999 0.036277998
-0.0038760044 0.049623001 0.042133
-0.0031120048 0.05517 0.046743002
-0.0016420053 0.059475001 0.049364999
-0.0015380058 0.065967001 0.052450001
0.00017899369 0.072067 0.051867001
-0.00068100693 0.078910999 0.05133
